0.291204 -0.562171 -1.19896
-1.41215 -0.389522 0.108944
-0.407416 0.769883 1.76201
-2.23444 0.714657 -1.14356
-0.618789 0.896006 -0.548645
0.383861 2.51758 -0.269367
-0.094101 -0.47639 -0.0514591
0.186899 0.876052 1.6661
-0.891549 1.16525 -1.57
0.700003 -1.01712 0.502329
1.26392 -2.55829 0.395728
0.251417 0.494307 0.114073
-0.282618 0.245829 -1.26856
0.665705 0.434307 -0.529582
-1.22137 0.796829 -0.234871
-0.752582 -0.788243 -0.450408
2.70271 0.0897409 -0.86735
-0.449558 -0.891315 -2.02627
-0.00667077 0.00624735 -0.329263
-0.571487 -0.228114 -0.057686
0.987522 1.11373 -0.116413
-0.356327 -0.635805 0.0925818
-1.14881 -1.53699 1.93653
0.371429 1.26943 1.44091
-0.0231237 1.87176 1.67457
0.0956241 -0.0787554 1.41407
0.704778 -0.0673541 0.833915
0.141374 0.146096 0.113857
0.487172 0.623373 -2.81907
-0.667972 1.28359 -1.20599
-0.11371 0.280121 -0.113427
0.932851 -0.338445 -0.244879
-0.227779 -0.0352887 -0.569621
1.10419 -0.277489 -0.0221034
0.667597 -0.363511 0.951038
-0.20509 -0.727208 0.189535
-1.09226 -0.658621 -1.118
1.67172 -0.363404 0.288257
-0.172833 -1.40265 0.394702
1.18577 -1.05611 0.130123
0.256485 -1.13929 -0.0649508
0.144747 -1.82414 1.0957
2.49408 1.89583 1.45233
0.713385 2.35765 -1.26843
0.343065 0.362267 -3.00199
0.970216 -1.45922 0.085596
-0.795849 -0.441638 -0.323554
0.239513 -0.817599 -0.353555
2.172 -1.07034 1.05201
1.13135 -0.234487 0.0198481
-0.132628 -0.115709 -0.219755
0.270677 1.10842 -0.0811854
-0.266927 0.539763 -0.0193829
-0.351963 0.664928 1.94583
0.739319 -1.29389 0.954381
-0.184802 1.79156 -0.851159
-0.34397 0.796039 -0.891529
-1.57152 -2.38233 -2.07943
-0.320727 0.0685655 -0.355017
-0.810318 0.31453 0.2312
1.96579 -3.19668 -0.377748
1.37645 -1.86966 -1.37987
-0.31504 -0.194901 0.652205
0.595633 -0.532212 1.47684
0.495553 0.264525 0.0986429
-0.878678 1.24284 0.9375
-0.48328 0.121471 0.803832
-0.494372 -0.150376 -0.0658345
-0.158019 1.02521 0.975178
-0.546012 -0.6517 2.70922
2.41721 1.22159 1.78752
-1.69858 2.0651 -3.56578
-1.22396 -0.720829 -3.597
-0.40098 -0.218513 -0.719575
0.463096 0.914115 0.457364
-0.486444 0.0588133 -0.412111
-0.826225 0.497609 -0.419785
0.987977 0.753237 -0.651798
0.0431259 -0.142846 0.0622993
0.203003 -0.336861 0.320088
0.930122 0.182925 -0.828595
1.09713 -0.315766 0.91709
0.563263 -1.33793 -0.0526678
-1.49278 0.769603 0.807665
0.0699112 0.0468301 0.981876
0.940624 -0.401465 -0.815518
-0.743275 0.216543 0.032144
-1.185 -1.20564 1.10567
-1.28815 -0.873673 0.503866
-2.72344 -2.14241 0.0550221
-0.592146 0.729942 0.757034
-0.0111059 -0.189786 0.139319
0.655326 1.05436 0.161183
-1.0293 -0.747792 -0.333927
0.162966 0.0221635 -0.0109462
-0.0335905 -0.29619 -0.124145
0.294217 0.843857 -1.0955
-0.122218 -3.31609 3.36183
-1.31781 -0.458588 0.56994
0.0703935 -3.23372 -0.105239
-3.15934 -0.0986241 0.732777
-0.581223 0.259424 -0.091741
0.45827 -1.33202 -0.154076
0.321406 0.296554 0.0746557
0.386989 -0.626022 0.983436
0.132306 1.06209 -0.36116
1.12147 0.165458 -0.834871
1.36511 -0.163108 0.162277
-0.268675 0.221415 0.210348
-0.237334 -0.667198 0.153333
0.0735086 0.314243 0.90431
-1.42162 -0.697113 1.11128
-0.389738 -0.727613 -0.432405
0.146103 0.746549 -0.314614
0.449753 -0.504521 1.27978
0.527043 -1.32171 -1.38325
0.925312 -0.0345888 0.214485
-1.79821 1.31929 0.0558903
0.130307 -0.326641 -1.57414
-0.475296 0.926851 1.11752
0.257065 0.816979 -0.74039
1.02179 -0.740895 0.577289
-0.26623 0.711904 2.35646
0.221452 -0.898439 0.257395
-0.0475032 0.0861665 -0.117898
-0.676123 0.607929 -0.710392
0.371759 0.710287 -0.370871
0.030637 0.959971 0.042893
-2.38321 -1.96932 2.51089
0.207345 1.34996 1.47468
0.334765 0.168067 -0.0202183
-1.29594 -0.678996 -0.373143
-0.68042 -0.728615 0.490038
-0.221871 -0.933705 0.132957
0.0685677 -0.017815 0.0853778
-1.43789 -0.815012 0.670271
-0.470638 -0.831942 1.29261
0.867394 0.353446 2.49685
-0.0595899 0.0491402 -0.586081
-0.00824436 -1.61794 0.055183
-0.562598 -0.0303353 0.668685
-0.24547 3.28535 0.653508
0.311444 1.81951 2.41096
0.317519 -0.7678 0.684848
0.740803 0.670582 -1.19512
-0.732068 -2.84123 0.113266
-0.777203 -0.552015 0.357677
0.0706999 0.01445 -0.700612
-0.872039 0.515645 -0.282907
-0.912139 -1.31677 0.916664
1.51987 0.0331319 -0.0602659
-0.66066 -0.677545 0.301966
0.138825 -0.551567 -0.0584153
-1.13861 0.751018 -0.203082
0.538557 -0.25852 -0.0762172
-0.294913 -0.128565 -0.393602
0.733228 -1.19077 0.222014
0.341641 -1.1066 -2.49869
-0.645892 0.650393 0.381015
-1.86426 1.20937 0.243817
0.943018 -0.959595 0.43536
0.808226 0.115184 2.30232
-0.779932 2.54343 -0.145191
-0.734274 0.156167 -0.475626
1.0691 2.57053 -1.57575
-1.70287 1.12049 -4.19353
-0.0768785 2.35209 -0.985177
-1.44868 1.0451 0.875337
-0.514095 1.05489 -1.37448
-0.9361 1.13833 -2.39563
0.503589 0.456495 -3.24255
-1.39665 2.02786 0.0192929
-0.0352227 0.142589 1.25934
-1.03896 -2.81854 1.9717
-2.53908 -1.21854 1.4885
0.29028 -0.656962 0.851651
0.333691 -0.191211 -0.00132959
-0.0328727 -1.44111 0.43556
-1.61172 -0.626722 -1.54053
0.486761 -0.296089 -1.74774
0.383308 -1.12376 -0.0995245
0.0708765 0.166979 0.292801
-0.0404296 0.261004 -0.458543
0.438506 0.64752 -0.38777
-0.0781611 -1.74369 -0.208136
1.05258 -1.17042 -0.255645
-0.156565 -0.468982 -0.453005
-0.196164 0.0993169 0.236343
-1.17072 -2.17537 0.34031
-1.58369 -1.48094 0.345185
-0.13649 -0.823574 2.30331
0.332151 0.043185 0.55136
0.020316 0.884267 -1.87943
0.00255533 -0.12084 -0.503175
-1.56636 -0.428684 0.408188
-1.93405 -0.978938 -0.792181
0.771637 -0.211509 0.482091
1.75652 2.26236 -0.540913
0.210693 -0.795862 -0.917597
-0.994797 -0.801348 -0.55264
-1.35419 0.726626 0.800474
0.570332 1.18893 2.81121
-0.0867461 -0.0524743 1.15714
-1.04788 -0.591401 -1.77486
-4.43219 1.36327 1.84797
1.85341 -0.516123 1.09077
-0.627508 -2.1029 0.908685
-0.0355075 -0.592366 1.70104
0.85644 -0.317821 1.2774
1.11373 1.06475 -0.06739
-1.68516 -0.00575734 1.72113
0.121209 0.081925 0.323151
0.523257 0.456313 1.36396
-0.198948 1.7358 -0.539533
1.85707 -1.41151 -0.459285
0.837594 1.62508 -1.05551
-0.0456803 -1.13086 0.506809
0.86208 -2.08456 -1.09657
1.23965 -1.19382 -1.60221
-1.06211 0.108767 -0.689272
-1.08544 -1.2645 -0.446122
-1.68412 0.125673 0.367484
0.326604 0.280578 0.0622174
1.02568 -2.23491 -1.69332
-1.75942 -1.54408 2.13812
0.748473 -0.8237 -1.00391
-1.98743 0.650631 2.20796
2.36068 -0.0887336 3.80509
0.207108 -0.0896027 -0.394313
-1.04353 2.01853 0.834204
0.786913 1.56014 -0.141215
-0.0137189 -0.0201965 1.10686
0.0395332 -0.0957197 -0.373947
1.90784 1.19663 0.957587
0.219373 -0.0406475 -0.442691
1.17468 -0.373996 1.36367
0.230157 0.450338 -0.463083
1.27346 0.294012 0.970681
-0.0716098 0.362694 -1.43315
-1.78407 -2.53327 -1.72282
1.27446 -0.878709 0.127201
-0.343837 -0.31631 -0.258964
-0.654986 -0.472881 -1.24176
-0.492239 -1.1645 1.64401
0.322936 0.165647 -1.57736
-0.44147 -0.542163 0.940904
-1.82588 -1.26205 -1.38401
-3.74545 -0.619884 -1.72826
-1.87602 -0.315745 1.59555
0.43915 2.63183 0.526454
1.32612 -0.353508 -3.02645
0.891879 -0.0190584 -0.977912
-1.23141 0.409978 -0.708933
-0.180108 -0.261356 -0.647003
3.01685 -1.11049 -0.073766
1.3026 -3.14166 2.74936
-1.15865 -0.79732 -0.34251
-0.0425454 -0.352251 1.36437
-2.20506 1.78146 2.01559
1.05365 -0.694205 0.585317
0.683777 2.89556 2.26956
-0.874933 2.07252 -1.72428
0.281918 0.207951 0.109254
-0.250732 1.17795 -0.124894
0.000279035 1.21783 -1.15219
0.789757 0.629846 0.125621
-0.873843 0.0472433 0.49257
-0.972436 -1.23091 0.72616
-0.515905 0.401954 3.77375
1.32194 1.5893 0.855774
0.0219899 -1.34412 -0.088704
0.79135 0.523493 -2.36913
0.59752 0.226558 -1.38477
-0.879696 -1.40217 -1.39183
0.629244 -0.816911 -0.771356
-0.849497 0.926355 1.37195
1.57917 -1.4598 -0.422247
-1.14253 0.489131 2.32135
0.335485 0.273777 -0.31082
-0.171323 0.20956 -0.478514
-0.0373447 -0.000745425 -1.06783
0.395084 -0.573688 -1.2461
-1.57266 0.0389039 0.432655
0.437114 0.314816 -0.251211
0.935701 0.825388 1.8266
1.04906 -1.73185 0.0587747
-0.114839 -0.975 -0.189654
0.546502 -0.365235 0.707547
-0.710232 -1.17983 -0.167338
0.780554 0.200707 -0.186923
0.215156 -0.359889 1.38735
-0.752025 0.491076 0.322214
-0.279988 0.152028 0.0950777
0.0463941 -0.192133 0.321987
0.312231 0.260909 -0.275767
1.28107 1.06793 0.890295
0.0374149 -0.239909 0.934999
0.0663094 -0.306172 -0.44658
0.629709 0.41326 -0.0753025
-0.343627 -0.752952 0.814632
0.327745 1.09641 0.580605
-1.67228 -0.442304 0.174776
0.0698868 -0.152558 -0.153174
0.0698868 -0.152558 -0.153174
0.0698868 -0.152558 -0.153174
0.128833 0.0441362 -0.942721
0.280606 0.834994 -0.813058
0.284805 0.722016 -1.01984
-0.859843 1.56947 0.73572
-0.300153 0.237614 0.0220995
2.35355 -0.339546 -1.96291
0.970834 2.05526 0.144461
-0.279503 0.866349 -0.69847
0.559156 0.0480483 -0.808462
-1.97668 2.09729 2.82003
1.4843 0.395461 0.15174
-0.707522 1.04253 0.39356
-0.0297084 -1.79934 0.300732
0.0767552 -1.87803 -1.43151
-1.80229 0.817846 0.205805
-0.477031 -0.531664 -0.45065
0.895375 0.491648 -0.97669
-0.121765 -0.105368 -0.136593
-0.0320081 0.0730157 -0.861697
-0.425508 -1.06073 0.0377341
-0.759976 -0.728201 0.911371
0.462389 0.491586 0.040205
0.434259 2.00439 -0.211761
2.90437 1.7566 0.431355
-0.483948 1.27562 2.94152
0.272462 1.80128 3.03251
1.12184 0.418519 -0.23561
0.305637 -0.91796 0.820156
1.89441 -0.546397 0.399341
2.06813 -1.24882 -1.43625
0.323007 -0.226074 -1.16863
0.692197 0.946216 -0.733431
0.616079 -1.3359 2.50662
0.896389 -0.630884 0.307723
-1.5663 -0.647 0.958367
0.118623 0.425455 0.060342
-0.251119 1.05598 0.884733
0.438099 -0.139922 0.157789
-1.03717 -0.700001 -0.377713
-0.99629 -0.43797 -0.0270516
-0.292264 -0.584876 1.35514
0.150175 -0.408277 0.414192
-1.79931 0.620458 0.478689
-2.30804 0.751249 0.926119
-0.237528 -0.0308727 0.12006
-0.204349 0.148005 0.334405
-0.15904 0.168237 0.845281
1.34311 0.0997809 -0.819851
-0.190776 0.390541 0.670205
-1.18666 0.218808 2.97196
-2.10501 1.34551 -1.40693
-0.102615 -0.24937 -0.106386
0.199442 0.0450722 0.968049
1.04521 -0.318151 0.976715
1.0079 0.546924 1.42839
1.15508 0.996571 -0.471977
-0.629229 1.37509 0.706975
0.835759 -0.0635802 0.321031
-1.12128 1.15136 1.0564
-1.25765 -0.0712 0.114268
-0.337874 -0.574367 -0.703069
-0.23063 1.35178 0.404381
-1.53514 0.0736447 0.187008
-1.60112 0.794388 0.320061
-0.0325739 0.423794 0.193975
-1.80415 -0.787763 0.973798
-3.50398 -1.33539 0.425386
1.3541 -0.305214 -1.17126
0.000772368 -0.324355 0.618996
-0.530852 1.52615 0.30128
0.300053 0.382517 0.599855
0.359949 -1.05887 0.429301
0.601876 -0.174126 0.171168
-0.183646 -0.355782 0.53156
-1.0237 -0.278094 -0.468591
0.0971553 0.871732 0.731194
0.434162 -3.29578 -0.45421
-0.135978 -0.510197 -0.443699
0.0457694 0.388616 1.28472
-0.433337 -1.25115 -0.730327
1.06366 -0.724394 -0.236378
0.42512 0.175895 -1.26281
-0.0075367 0.0111902 0.519139
-0.970094 -0.202499 0.187213
-0.824658 -0.138218 -0.258494
0.850799 0.099213 -0.448993
-0.445659 -0.388371 0.967467
-1.08672 -0.0926281 0.74433
-0.859955 -0.805489 -1.73283
-0.0479496 -0.0508553 0.00146111
0.735823 0.437384 -0.672959
-0.13853 0.0612743 -0.296931
0.777025 0.701154 0.41008
0.428041 -0.150507 1.50106
-0.586643 0.790505 -1.35694
-0.470217 -0.222443 -0.596825
0.195365 -0.311386 -1.68233
-0.319406 -0.728509 0.0602412
-0.280534 0.0905243 -0.658541
0.155554 1.48162 -0.304147
1.02862 -0.242746 -0.108312
-0.0404482 -1.0065 0.00690586
-0.356099 -0.212668 0.637137
-0.673679 -0.299144 0.788056
0.311746 -0.124611 -0.314771
0.357589 0.248921 0.252689
-0.423587 0.0927076 0.717011
0.151537 -0.644778 -0.909455
-0.766866 -0.739454 0.623551
-2.59545 1.02528 1.62729
0.416673 2.20703 0.259804
-0.325139 0.258019 -0.156855
0.347073 -0.46491 0.521469
0.630151 0.494844 -1.11345
1.21422 -0.299545 -0.41045
0.214353 0.322165 0.381421
0.400162 -0.0403915 0.435935
0.907789 0.814545 0.96507
-0.588731 0.764862 -0.254962
-0.809737 -0.146222 0.863924
0.791776 0.951115 0.464693
-0.343308 -0.540591 -0.431671
0.832107 -0.731116 -0.0892844
-0.492356 -1.62411 0.755179
-1.14728 -0.374918 -0.126628
1.17344 1.65835 0.540016
2.6955 0.46872 -1.03531
-0.369753 0.988218 -0.636362
0.685307 0.416035 1.01885
0.498935 1.12873 0.550615
1.2139 0.448656 0.218766
-1.43973 -0.113994 0.525025
0.544631 -0.678973 1.02013
-0.694804 0.910835 0.319986
-0.526724 -0.0241861 0.658117
0.152989 0.216537 0.203549
0.189918 1.52034 -0.809959
-0.701871 0.571949 0.173706
0.807801 0.671117 0.452829
0.350303 -0.418468 -0.814752
2.50385 -0.103981 -0.514711
2.24621 -0.847161 -0.352132
-1.48299 -0.220868 0.470448
-1.77508 0.610462 -1.17699
0.646708 -0.699999 -0.278454
0.722584 -0.416079 -0.0487331
0.196737 0.179274 0.443351
0.689294 -0.39259 0.400139
1.61838 1.48306 0.251343
-2.47579 1.72052 1.00019
-0.672781 -0.374073 -0.483823
-0.793356 -2.13548 0.390636
-0.47882 -1.14921 -0.0186477
0.670153 -1.29364 0.606024
0.170902 0.153276 0.735887
-0.0626657 -1.14633 0.666164
0.278875 0.150266 0.614501
2.03301 0.500237 -0.690114
-0.368611 0.421126 -0.232062
-0.973886 0.381313 -1.73757
-1.12768 0.257214 0.293418
-0.182994 -0.197853 -0.415355
1.29162 -2.08177 -0.364833
0.455739 0.646161 -0.720671
1.63104 0.899785 0.414601
-0.288797 -2.20145 0.496015
-0.121248 -0.584296 -0.316575
1.39284 0.428022 -1.05699
0.0263533 -0.754677 -0.151691
-0.354197 -0.308647 1.55952
-1.0564 0.0761951 0.136526
0.470635 0.338231 2.02234
2.28229 0.0913055 0.233026
0.574535 0.315498 1.34906
0.691535 -0.308374 1.03131
0.286512 -0.254599 0.406894
-0.421403 0.0222225 -2.12646
-0.193967 -1.60331 0.345392
-0.151654 0.305763 0.126896
0.649661 -0.560872 0.10744
-1.63455 0.290679 0.863464
-3.34516 -2.43728 -0.526862
-0.401789 0.285892 0.313308
-1.43481 -1.10577 -0.229867
-0.430319 0.0308228 0.441221
-2.23289 0.251868 -0.991207
-1.05919 -0.651562 0.425547
0.69158 -0.243148 0.924907
0.327837 0.165585 -1.06122
-1.02375 -1.58653 0.322056
-2.30763 -1.8154 0.175071
-0.227402 -0.583147 -0.321514
-1.97602 -1.0203 -0.797442
-1.28657 -0.376862 -1.45641
3.11141 -1.95229 -0.502426
-0.127682 1.29967 -0.574654
-0.094683 -0.735381 1.62208
-0.427037 0.144415 0.644592
0.182738 0.0930165 -0.636421
-0.527454 0.28915 0.456197
-0.545865 -0.994419 2.10303
-0.173436 0.461386 2.1917
0.659349 0.163698 0.647325
0.870211 -0.598674 0.0874036
3.61712 0.583109 -0.262872
0.503296 0.430459 -0.625945
1.25231 -0.715267 0.346008
0.214797 -1.62993 0.712613
-0.605473 0.75826 0.254721
-0.589349 -0.70359 -0.882097
-0.224557 -0.127793 2.24238
-0.783107 -1.01026 -0.882812
0.589586 0.630632 -2.31202
0.272773 -1.02974 -0.343401
-0.477557 0.410143 -0.246365
0.157501 0.121085 -0.0475433
-0.00320378 -0.0681553 0.386093
-0.395545 -0.363015 0.14328
0.716737 1.25806 0.0978775
1.11507 1.81446 1.11509
-0.93697 0.0543739 1.53079
-0.666423 -0.0958425 -0.191745
-1.8681 -1.74506 -1.73774
-1.07519 -0.853779 2.85508
-3.43166 -0.868789 -1.3861
-1.13132 -1.51617 0.209665
0.10346 0.187266 2.61101
-0.0886955 -0.293868 -0.295585
0.811722 1.18588 0.343474
-0.0689752 0.131354 -2.99776
-0.35176 -0.993102 -0.0240951
0.0127266 -0.533994 0.34418
-1.27245 0.0454377 0.610053
0.0252167 1.42749 1.10979
0.324951 -0.526803 -0.427509
0.392605 0.405694 0.367592
1.55503 -0.603421 2.8365
-0.0337287 0.605804 -0.317775
-0.978941 -0.702583 -1.09835
0.437964 -1.30285 0.310225
-0.229624 -1.39049 0.00364794
0.858919 2.52965 -0.705119
1.50865 -0.337534 -2.33524
-0.865821 -0.592385 1.98531
-0.802803 1.82625 -0.398914
-0.0461095 -0.105753 -0.0394813
0.439926 0.593111 0.814271
0.297325 0.753747 -0.118013
-1.64748 -0.916 0.709326
0.840569 -0.170689 -0.0236878
-1.34734 -2.33357 0.874562
1.37945 -0.576414 -0.130292
1.51691 0.212058 0.6709
0.988871 2.09664 0.926115
0.0751172 0.402929 -0.114691
-0.0211557 -0.0780615 -1.22668
-0.66796 -0.1829 -1.59373
-1.09352 -1.09557 0.0151162
-1.27681 -2.12329 -0.454984
0.198509 -0.684118 -1.86837
-1.21861 0.887388 1.04321
-0.656594 0.773788 0.562658
0.543081 0.579678 -0.09495
0.551281 0.450183 -1.04338
-0.13518 -0.211859 0.11532
0.670551 -0.969559 0.367928
0.16814 1.2813 -0.130932
0.856818 1.44108 0.366372
-0.119535 1.28294 -1.47564
-0.480715 -0.909239 0.709751
2.1617 -0.280631 1.45243
1.24129 -0.30579 -0.185113
-0.659919 -0.976877 0.241931
-0.369856 -0.629151 0.316942
-1.44251 0.460988 -0.00109713
0.208415 -0.410765 0.670368
-0.629516 -0.580131 0.224101
-1.05038 0.47265 -1.07682
-0.357225 0.890289 -2.15051
-0.784663 0.331759 -0.754838
0.832118 -1.10832 -1.27733
-0.196945 -1.57069 -0.402795
0.378042 -0.83272 -0.112745
0.48322 -1.40023 -1.33185
-1.09867 -0.0213225 0.0777831
0.273364 -1.01327 0.706695
-0.575293 -1.74893 -0.720093
-1.54707 -0.549605 -0.351152
-0.87869 -0.521422 0.172013
0.366948 -1.04463 -0.255788
-1.43712 -0.613056 -0.990508
-0.261353 -0.367145 0.232141
0.514008 -0.727477 -2.45234
0.763783 -2.66314 -0.183282
-0.306134 0.697428 -0.913576
0.385596 -1.25849 2.27905
-1.19025 -0.223936 0.398844
2.60452 0.230012 0.62417
-0.0619546 -0.716506 0.881917
0.250832 -0.892871 0.161514
-0.609552 0.283019 0.0605006
0.138361 -1.73395 0.463566
-0.935327 0.119642 -0.380757
0.7881 0.597253 -0.456776
-0.581426 0.575418 -0.697768
-0.328737 0.224754 -0.738638
0.145556 0.122673 -0.569143
-0.0566697 0.166098 -0.16657
1.08506 0.408996 -0.752804
-0.229561 0.67666 0.699963
0.207692 -0.173163 0.114397
0.082175 -0.11864 0.451064
-0.305129 -0.0656312 -1.30678
-0.45356 1.33093 0.267449
0.0926151 0.216523 -0.151756
0.31527 -0.183522 0.127782
0.163176 0.0383567 0.426001
-0.499956 -0.263877 0.224767
-1.02373 -0.67559 0.51829
-1.26631 -1.76348 -1.24592
0.096665 0.202875 0.204542
-0.487146 0.226583 -0.419374
0.0714793 -2.70002 -0.674513
0.778413 0.180567 0.388055
-1.69505 -2.51753 2.49162
0.699938 -2.00548 0.413196
0.476743 -0.105572 -0.49066
0.250617 0.0714874 0.825615
0.0678523 -0.021419 -0.0550857
-2.23466 -1.07856 1.76247
0.0313599 0.893948 0.411715
0.527178 -1.53429 0.425215
-0.314059 -0.0482741 -0.677732
-1.82225 1.23914 -0.270114
0.757856 1.73816 -0.00746121
0.352409 2.35778 -0.796984
-0.508409 -0.879331 -0.866105
-1.10383 -0.513619 0.361221
0.179348 1.53925 -0.620882
-1.39455 0.868883 -0.644935
0.173743 0.388736 -0.173977
0.723438 -0.459794 -2.4684
0.188373 0.690372 1.13408
-0.552631 0.963575 -0.545904
-0.276464 -0.407562 -0.34494
0.915271 -0.00186706 0.168981
-0.317577 0.386078 0.959001
-0.389094 -0.566084 -1.09919
0.0395477 1.28085 1.32932
0.221806 -0.896355 0.508587
0.725487 0.62792 -0.293303
0.205746 0.0436798 -0.239724
-0.038554 0.360383 0.101265
0.117873 -0.298422 1.63882
-0.224884 -0.684892 -0.442021
0.110267 0.571052 -1.16259
-1.36843 -1.36192 1.12579
-0.6586 2.13365 0.992777
-0.733329 -0.779531 1.34505
-2.04304 1.32284 -0.054136
-0.115585 2.18246 -0.835079
0.209182 0.200024 -0.821439
-1.64483 2.71395 -0.621056
1.38971 -0.39784 0.166652
1.07282 0.596129 -0.445822
-0.0678291 1.46945 -0.95489
-0.411961 -0.370101 -0.349835
0.480865 -0.501252 -0.131909
0.741085 -0.355506 0.033425
0.0766672 -0.233553 0.979352
-0.412165 0.133313 -0.633485
-0.251244 0.330984 -0.149769
-0.171085 -0.147333 0.0429995
-0.0538212 -1.41471 -0.239865
-0.0740374 -1.92146 -0.206771
0.0679385 1.28137 -1.27875
-0.354405 0.652002 -0.140809
1.70979 1.52083 0.633929
0.0189818 -0.379982 1.00295
0.0762933 -0.863498 -0.966278
0.364438 1.13448 -0.202008
0.0754415 0.133479 -0.296239
1.01649 -0.529996 2.36465
-0.475297 -0.362498 0.865266
-0.972219 0.214736 -0.282525
0.0932258 0.265155 -1.00975
0.158423 0.2657 0.470838
0.70853 1.24296 0.693646
1.3455 -0.0473594 1.27441
-0.142948 0.471197 -0.0495394
-0.847345 -0.634055 0.0210674
-0.482905 -0.327145 0.105163
-0.236644 -0.207974 -0.30163
0.110691 -1.78195 -0.748988
-0.937511 -1.16983 -1.25726
-2.83887 1.45029 -1.92374
-0.0624717 2.03669 -0.0236789
-0.32969 -0.676406 -0.584887
0.354684 -0.829936 -0.37262
0.377008 -0.418208 -0.870062
-0.712476 1.26321 -0.919188
-0.12657 1.66363 -0.0561745
-0.0502393 0.246203 0.240685
-1.01843 0.412342 -0.134166
-0.474135 1.21764 -0.273565
-1.14383 0.342916 0.15305
-0.178701 1.69815 -0.0447866
-0.791068 1.50465 -0.445485
0.598266 0.153718 0.850004
-0.834235 0.485269 -0.611293
0.815684 -0.299685 2.34505
1.83763 -0.730696 0.847849
1.92936 -0.343537 0.792642
0.128758 -1.91588 0.665709
-0.969556 -1.60564 -0.0824314
-0.721786 0.795269 1.11938
-1.05777 0.928561 -0.168174
-0.898029 -1.21048 0.177853
0.190845 -1.20235 -0.195005
0.640312 -1.56126 1.36801
-0.344053 -2.81543 1.14628
-0.646463 0.370559 -0.579617
-0.22031 0.8055 -0.289857
-0.181104 -1.57211 -0.377741
-0.212903 -1.92352 0.20574
-1.40194 0.581342 -0.875495
-0.193113 2.32714 -0.229091
0.0991088 0.631506 0.21462
-1.52237 0.101973 -0.566418
-2.56971 1.15062 -2.92255
-0.163643 0.93018 1.87245
-0.437014 -1.3298 0.946846
0.687396 0.392949 0.297151
1.18848 -0.892041 0.272125
0.591582 0.964365 -0.0396313
-0.367141 0.0921429 -1.88452
-1.36743 -2.36061 -2.3028
-2.21799 0.258315 -0.57238
-0.250211 0.00270899 -0.531904
-0.270208 -1.22053 -0.65563
0.389086 -1.96109 1.57565
-0.113909 0.177999 0.742031
0.00348307 1.13327 0.398341
0.338894 -0.701314 -0.746517
-0.777048 0.597276 -1.56783
-1.52561 -0.789546 0.569322
-0.752184 0.207203 -2.6156
0.699644 0.214028 1.08614
0.0632924 -0.840169 0.350194
0.729013 -0.01593 -0.0952339
-0.210726 -1.63708 -0.14744
-3.52285 2.61524 -1.16268
-1.71514 -0.0795376 0.233934
-0.344604 1.64284 0.131954
0.280223 -0.149771 0.114097
0.0899595 0.73006 -0.864632
0.937715 2.70295 -1.6174
1.1394 0.531949 0.691553
-0.560795 -0.041163 0.217539
-1.64252 1.01205 0.66452
-2.66255 0.342719 1.50855
0.621958 -1.52231 -0.00176949
-1.47827 1.08559 0.946714
1.361 -0.788794 1.19854
0.286487 -0.741473 0.497508
0.223654 0.898046 0.78794
0.705416 -0.227622 -1.45518
-0.187192 0.105039 -0.00498332
0.526644 0.526799 0.276489
0.759165 -0.158487 1.11375
-0.728865 -1.59698 -0.475429
0.117573 -0.124369 -1.61
0.843207 1.14324 0.484326
-0.660895 -2.11088 -0.551677
0.118091 -0.0921427 0.0808725
-0.0215175 -1.00429 -0.475096
0.469786 -1.40568 0.960922
0.408623 -1.13975 1.16998
2.22111 1.14591 -1.21471
0.928577 -0.283412 -0.772071
-0.515517 3.64077 -0.416764
-1.49327 1.8268 0.246566
0.482029 -0.378239 2.19983
-0.617971 -1.85328 1.04777
0.501685 -1.37255 1.96345
-0.343465 0.787391 1.02345
0.0522825 0.849704 -0.00478334
0.336852 -0.858013 -0.977136
-0.779041 -0.803005 -0.615038
1.30939 -0.00946318 0.556175
-1.29907 -1.1473 0.33359
-1.88487 3.03076 2.26644
-0.0941558 0.222227 -0.0859991
0.0736412 0.245823 0.265282
1.27203 0.135373 -0.0851227
-0.169881 -1.63008 -0.924616
-0.703264 0.296481 0.255505
1.61636 0.0315524 -2.09726
0.0433228 -0.167622 -0.382552
-0.591993 -0.387292 -0.538086
-0.602076 -0.35055 -0.289454
1.17855 -1.5594 1.59762
-0.00701292 0.254156 -1.00986
-0.803467 0.650387 -0.374978
-1.35228 -1.71104 1.06786
1.62005 -2.23256 0.500866
0.320529 -0.505467 0.58496
0.0217574 0.592384 1.37835
0.160471 0.114799 -0.24351
0.701697 -1.2158 0.132443
-0.114039 -1.00553 0.71563
-0.161969 -1.33264 1.18816
0.338804 -2.2295 0.312472
-0.0918062 0.738632 0.135909
1.75445 1.12989 1.07172
0.173738 0.687332 1.27204
-0.33939 -0.713469 -0.799062
0.192285 0.401593 -0.136662
-0.685611 -1.20259 -0.708888
-0.981161 -0.394586 -0.368343
-0.794551 -0.432763 -0.369677
-1.50346 1.33896 1.2455
-0.790231 0.939228 -1.22457
0.188652 2.8873 0.86238
-2.10882 -0.631916 0.657588
1.67551 -0.581772 0.94549
0.291589 0.267372 -1.06338
0.0741415 -0.206978 0.389055
-1.41613 1.73889 -0.629406
-1.68694 -0.957398 -0.58537
0.407439 -0.100762 0.0227678
0.734451 0.983974 -0.195016
0.183125 1.65642 -0.465044
0.352486 -0.121561 0.00917848
-0.330525 -0.121341 -0.846804
-0.756778 1.74742 -1.31653
-0.17329 2.62757 0.170936
-0.100239 -0.700586 0.48869
0.559801 0.258004 1.00171
-0.036872 -0.0295441 0.130733
-0.0293448 0.298167 0.217051
-0.251532 -0.0283955 -0.0497969
0.553077 0.820529 -0.243104
0.720816 0.161575 -0.440941
1.44073 -1.85849 0.528715
0.892367 -1.85214 -0.623193
-0.569579 -0.692523 -1.6427
0.735515 1.5634 -1.39967
-0.8485 1.7162 0.259313
-0.586241 -0.630042 2.5721
0.670058 1.66019 1.12852
-0.0965329 0.424035 1.99662
1.97811 -0.40381 -0.614672
-0.825419 0.540339 0.00261013
-0.152951 -2.59871 -0.257525
0.146798 0.341769 0.185961
-0.0219351 -0.479108 0.564293
-0.495644 -0.333912 0.219581
-0.528288 -0.0740917 -1.52996
-0.00198667 1.07985 -0.493184
-0.0600609 0.338879 2.13307
0.799188 -0.43684 -0.670675
-0.536142 0.0972291 1.37178
-0.679792 0.0938652 -0.826531
1.0676 0.818356 -1.63348
1.61067 0.280469 0.551176
0.612367 -1.49384 1.93248
1.0096 0.498551 0.094189
1.68816 -0.11346 2.3218
-0.645788 -0.882625 0.417646
-0.00248781 -0.573266 0.105644
0.562928 -0.822115 -1.43787
0.227933 -1.25871 0.101361
-0.346554 0.121585 0.496889
-1.41448 -0.304238 -0.533192
-1.72842 -0.113847 1.44545
-0.793469 0.59374 1.21378
-0.356188 0.141754 0.310205
1.31484 -0.568678 -0.273083
-0.0876423 0.167327 -0.147732
-0.735946 -1.16089 0.0672873
-0.448166 -0.948751 0.492557
-0.369643 0.425385 -1.45659
1.51974 -0.180138 -1.5331
0.632379 0.159487 -0.0417947
-0.732018 -1.24563 0.451194
0.0485954 -0.0756588 1.65172
-1.32796 0.481738 0.265791
-0.90216 0.133437 -0.59938
1.58381 0.547518 1.06864
1.10427 -1.45519 0.321388
0.987564 -0.295775 -0.827359
-0.339918 -1.95945 -0.610627
0.666168 0.619951 1.45216
0.164356 -0.305852 1.01616
0.78916 -0.264874 0.0922939
1.15189 0.00787142 -0.926486
1.67165 -0.781864 0.650942
1.12763 1.83689 -0.539099
-0.479224 -1.09057 0.872926
0.187526 1.28952 -0.893989
0.289824 0.0377662 0.602494
0.345081 1.128 2.45294
-0.334544 3.46674 0.146362
1.31444 3.4795 1.59111
0.921749 0.412434 1.55127
0.687157 0.841891 -0.165963
-1.72662 0.0216296 0.88348
-0.916128 2.14898 1.03818
-0.241665 -3.14093 -0.67632
0.753376 0.742765 0.713081
2.8006 0.174781 -1.66923
-0.893791 -0.0902113 -2.66982
-0.0651259 -0.352601 -0.561642
-0.528371 0.170289 -1.02584
0.737103 -0.471048 -0.0119069
-1.4154 0.358765 1.15012
-1.91836 0.779444 1.50385
-0.128922 -0.158718 0.308944
-0.219084 0.405562 0.106427
-2.24666 0.208727 -1.16343
-0.619598 -0.512073 0.0318264
-0.28389 -0.252299 -0.172134
0.126523 -0.714355 -0.723746
-0.00829898 0.572474 0.188593
-0.189396 0.521095 0.300656
-0.181554 -0.888519 0.633885
-1.06143 -0.922948 2.07232
0.166246 0.33619 0.0400183
0.627818 -0.822618 -0.600571
-0.99336 -0.635624 -0.411312
0.150327 -0.500933 0.00776686
-0.127657 -0.166697 -1.29163
1.01738 0.325452 -0.018741
-0.335512 -0.155804 -0.21625
-1.45409 0.0338614 0.616911
1.52055 0.249905 0.47147
1.39387 -0.710516 0.913502
0.904114 0.801198 0.750274
-0.0767235 0.94114 -1.03562
-0.586684 0.0765666 0.942742
-0.2318 0.482553 0.810324
0.664005 -0.0401418 -1.24679
0.469099 0.250902 0.196575
0.715571 -0.744897 -0.758478
1.78879 -0.387179 -0.299076
-0.0264875 -0.155018 1.6526
1.41725 0.831769 0.746885
0.95318 0.205516 -0.223855
-0.452424 0.408155 0.402421
-1.011 -0.800826 -0.134026
-1.0091 1.26373 -1.24537
-0.714771 -0.586079 -0.74042
1.1577 -0.767525 -1.07369
0.829827 -0.969058 1.11083
-0.546826 1.21554 0.503305
-0.491113 0.247514 0.232217
0.854073 0.340534 -0.414162
0.286741 -0.65428 0.169051
1.16096 -1.05885 0.388341
1.09618 -1.24768 0.631277
1.29263 0.529478 0.406264
0.437167 0.189991 -0.14381
0.45623 -0.166216 -1.47443
1.34157 0.849327 -1.36472
-0.375409 -0.990321 -0.237593
0.413361 -0.185009 0.308468
1.18654 -0.847217 -0.0124626
0.735635 1.03335 0.449437
1.15515 -0.297803 -0.684356
-0.367237 0.135803 -0.481207
-0.0352541 0.0261324 0.148834
0.114945 0.904262 1.85978
1.53063 0.406378 1.66843
-1.81513 1.79513 1.21793
-2.51421 3.55048 0.804137
-2.04402 0.519066 -1.52536
-0.93261 0.065893 1.47987
-0.912458 -1.98128 1.98083
-1.1309 -0.260347 1.18502
-0.354899 0.0615441 -0.271508
-0.0790042 0.615362 2.23311
-0.486237 0.024889 -0.416475
-0.87751 -0.498008 -0.543598
-2.00454 -1.25286 1.46296
-0.611227 -1.94149 0.304662
-0.695849 0.0278996 -0.250967
-1.13845 -0.324076 1.34379
0.333356 1.86697 -0.554306
-1.03265 1.90651 -1.60527
-0.580682 0.136492 0.557597
-0.496243 -0.778302 0.789633
-0.0986822 -1.2623 -0.377756
0.0622569 -0.890036 -1.2337
0.661937 0.473503 0.342242
-0.220095 0.139758 0.429351
0.0134743 -0.0290049 0.238758
0.280001 1.14379 0.357917
-3.02285 0.664153 1.80302
-1.62747 -1.70499 0.410198
-0.671661 0.8048 0.98529
-0.301945 -0.89583 0.821294
1.50508 -1.92914 -0.0924482
0.251448 0.479649 -0.299001
-0.355149 0.312334 -0.73529
0.963166 0.825269 0.376211
0.671524 0.677305 -0.699503
-0.338522 0.211369 -0.923643
-0.826053 -1.37843 0.135325
0.0248389 0.461097 -0.380284
0.105747 0.225108 -0.019964
-0.237314 -0.313355 -0.193713
1.94057 0.0180148 1.35844
-0.0648129 -0.329113 1.09585
0.21807 -1.34578 0.0790776
0.289157 0.630077 1.3021
-0.235761 0.764155 -1.05618
0.438724 -0.174155 0.582628
-0.991805 0.422337 -0.0373246
0.884375 0.503465 -0.556549
-0.221617 -0.493079 0.281721
0.466329 -1.36557 -1.02102
-3.29082 -0.950888 -0.627537
1.02606 1.3572 -0.18065
0.134928 -1.09061 0.281873
-0.22887 0.515543 -2.10031
0.27556 0.870484 -0.492971
-0.551274 0.0532267 0.985385
0.036303 -1.63847 -0.253368
-0.236952 -0.0359984 0.412133
-1.44816 -0.491301 0.0891632
-0.120047 -0.43662 0.453769
-0.811694 -1.0629 0.101135
-0.660917 0.847982 0.556497
-0.459108 -0.770929 2.29132
-1.54935 -0.808668 0.0166697
-0.714774 -2.08789 -0.151526
0.331629 -0.163074 1.22758
0.193576 -0.11131 -0.417142
2.12711 0.253647 -1.59675
-1.181 1.02577 -0.420168
-0.523439 2.43274 1.71113
-0.579321 -0.0710231 0.59943
-1.20602 -0.18541 -0.724817
0.1432 0.415761 0.311504
-0.0708588 -0.0788256 -0.560219
-0.116833 0.0124172 0.155753
0.15398 -0.651132 -0.37881
1.67804 -2.01568 0.533632
-1.49296 -2.82243 2.48248
1.90082 -2.10127 2.00673
0.714981 -2.46765 2.25469
-2.62984 -1.07613 1.03728
0.919351 0.0950374 2.27197
0.470037 -0.663703 0.234485
-1.985 -1.33381 -1.24054
0.289067 0.31829 0.267694
-0.21595 -0.111131 -0.146422
-0.328881 1.19932 0.517527
-0.93882 -1.34969 0.703183
0.508272 -0.434631 0.356198
-0.0355631 1.06044 -1.59231
-0.157702 -0.346246 -0.0715347
2.28101 -1.0466 -1.20899
0.705329 -0.772423 -0.275922
0.163174 -0.935573 0.259141
0.239845 -0.444238 1.21847
0.34527 0.231274 2.59588
-0.260192 1.20794 3.53654
-1.25088 -0.237284 0.387435
-0.177947 1.00294 1.93844
0.013601 -1.06825 1.98381
-2.30105 -0.640868 -1.24883
-0.306811 -0.782137 2.10992
-0.221001 0.125398 -0.757254
0.710011 1.10672 -0.761954
0.306983 -0.857739 -0.725075
0.32006 -0.790782 -0.281479
0.241245 -3.4013 0.592581
1.07402 0.819797 -1.54919
-0.951404 0.895335 0.159305
-0.120516 -0.475461 0.685096
-1.0324 0.407467 -1.44479
-0.81486 -1.836 0.45535
0.463537 -0.559108 -0.120084
-0.105825 -1.25862 -0.705196
0.950271 0.131795 -0.835913
-0.243593 1.15973 1.31915
-0.834871 -0.629092 0.500226
-1.47315 0.0674009 -0.476561
0.299077 -0.836475 -1.7163
0.0340116 -0.466476 0.682939
0.45613 -0.879505 0.19262
1.51889 -0.201165 -0.442053
0.91212 0.19086 0.433887
0.804429 0.514672 -0.367213
-0.122156 0.24817 0.276665
0.0804651 0.320592 -0.0955978
-0.340457 -0.687833 0.121623
0.22305 0.749453 0.445772
0.0949363 -0.2175 -0.461153
-0.722846 0.285874 0.65263
0.9785 -0.842935 -0.358511
-0.607832 2.655 -0.00492132
-0.246038 -1.15087 -0.0758732
0.440324 -0.768508 -1.14865
-0.407177 0.696046 -0.572582
-0.888512 -0.37011 1.41212
-1.2418 -0.0531275 -0.994292
-1.84279 1.9981 0.216287
-0.655929 -1.58952 0.614888
0.525889 -0.306388 0.227489
0.0652285 -0.34686 0.932319
0.0988304 -0.29798 0.242025
0.927046 -1.4228 -0.693595
-0.246279 -0.666641 -0.424243
-0.753597 -0.671555 -0.577763
-0.221948 -0.50826 -0.0105525
0.0815563 1.85264 -0.849774
1.7493 0.366575 -0.304961
-2.27631 1.07772 2.06768
0.701871 1.06718 0.703353
-0.615134 0.776998 0.883909
-0.0140544 0.366808 -0.115952
-0.427932 0.119763 1.58409
-0.00795538 0.471797 -0.975436
-1.16898 -0.753002 0.459007
0.472541 -0.211375 0.708201
0.308441 0.369265 -0.255915
0.374509 -0.308987 -0.0612974
0.77302 0.623476 -0.0902381
-0.357652 0.269172 -1.02105
-0.960108 -1.24376 -0.0638392
0.394518 2.18186 -0.684139
0.758259 -0.202091 2.18075
1.32317 -0.0588762 0.171974
1.12 0.109983 -0.160504
-0.753651 -1.36489 0.222831
-1.69701 -0.318901 -0.127817
-0.209288 0.0730178 -0.313308
-0.214229 -0.344624 -0.25097
-0.116526 -0.581961 -0.499247
0.986219 -0.0872932 0.412162
-1.95083 -2.06534 0.767531
-2.96428 0.362023 1.39821
3.28172 -0.0614829 -1.11521
3.32682 -0.418396 0.284539
0.362339 0.120249 0.443484
-0.3538 0.862429 -1.10117
-0.921039 -0.925865 -1.92595
0.556448 0.745221 0.867453
0.254512 0.281274 -2.3118
-0.268566 0.756025 -0.43163
-1.64015 1.70353 1.38175
2.49047 0.366786 0.764343
0.446985 1.83304 -1.02722
-1.17719 0.178862 -0.835111
1.58407 0.462164 -0.517964
-0.612014 0.396188 -1.58082
-0.833395 -0.491314 -0.302571
-0.518077 0.525782 -0.142408
-0.17549 -0.533304 -0.156794
-0.13533 -0.488408 -0.334436
-0.663646 1.4454 1.27148
0.473985 1.20503 -1.68896
-0.279014 -0.911997 -0.144215
0.230843 -1.45211 -0.247226
1.85176 0.597924 0.848644
-0.242266 -0.403613 0.0382742
0.396529 -2.29108 0.20082
-0.352881 0.0536289 -0.255794
0.261494 0.217578 -1.58205
-0.427068 -0.129178 -0.233904
-1.49891 0.948076 0.230637
-0.0760802 0.82751 0.954524
-0.885434 0.693227 -1.27483
-1.52656 1.40799 0.369857
-0.392598 1.46031 -0.396657
-1.32762 0.280585 -1.04495
0.0357693 -0.327077 0.22123
0.524151 0.102931 0.670145
-0.377407 -0.25868 0.45907
-0.766132 -0.183679 -0.498663
0.0858138 0.396348 -4.49944
0.422288 -0.648441 -0.148327
0.0375205 0.398628 0.982475
1.95104 -0.114055 1.41029
0.46127 1.48934 0.00872649
0.44272 0.368565 0.152171
-0.15808 -0.907424 1.32825
0.903364 0.345573 0.0485313
0.51832 0.277268 -0.75563
0.370004 -0.0166559 -0.657949
0.0359234 0.247293 1.69991
-1.12332 0.398783 -0.768763
0.104231 -1.79868 -0.520792
0.22871 0.484014 -0.26646
-1.52648 -2.14227 -3.18469
-0.776217 -2.52224 -2.02511
-1.32632 0.469867 -1.54149
0.226902 -0.39793 0.218992
0.120275 -0.68877 -0.290699
0.944247 -0.546456 0.316083
-0.260016 -0.61992 0.545763
0.105543 -0.923032 1.14876
0.292362 1.94209 1.01668
1.17138 -0.447078 1.16741
1.47685 -0.0223791 -0.0637854
1.28361 -0.641926 1.07545
0.396002 -0.269865 0.216939
1.70784 -0.244406 0.956198
-1.30879 0.252399 0.805411
-0.208591 -0.0533318 -0.261945
-0.183643 -0.21944 0.180623
0.202226 0.775664 -0.897154
-0.177555 0.0118501 0.536591
-1.75568 0.0240484 0.666797
0.19491 -0.537345 0.856857
0.415121 -0.316152 0.42434
1.69018 0.292383 -0.080806
-0.43149 -1.46843 -0.772034
0.213304 0.479491 -1.2742
-0.92346 0.32006 0.920461
-1.24319 -0.696827 0.613819
-1.12144 0.198185 -0.466851
0.356618 -1.03232 0.0740146
-0.767735 0.462543 0.519909
-0.292231 0.193135 -0.511674
0.237162 -1.22444 -1.63835
1.90973 -0.0983723 -0.379139
-0.484268 -1.20382 0.96107
0.476009 0.971615 -0.682732
0.173363 0.157019 -0.440855
0.532817 -0.939498 -0.639562
-0.0840119 -0.723566 1.4569
-1.53512 -0.0996125 -1.16318
-1.01283 0.30085 0.511932
-0.728794 0.745628 -0.261589
0.147885 0.683249 -0.33247
0.110927 -0.614853 -0.386296
0.757296 -1.434 -0.872092
-1.19526 -0.995415 0.173339
-0.106898 -0.955815 1.74179
1.4735 -0.451563 0.537379
-0.109206 -0.989588 -0.82749
0.705218 -1.56175 -0.923148
-0.581871 -1.89194 1.50116
2.90357 -0.818744 -0.198183
0.499634 -0.671659 0.0828412
-1.23072 -0.0500583 0.48894
0.351731 -0.09024 1.69839
0.115623 0.737233 -0.70934
-0.290015 -0.0918094 0.890354
0.18458 -0.505311 0.0361038
-0.481414 -0.191586 0.112164
0.912358 -0.110646 -0.619375
0.463194 -0.200998 0.457908
-1.08129 -0.129075 0.527332
-0.0327122 -1.13769 0.540002
-1.4382 0.149367 0.672507
-0.179241 0.117861 0.0269016
0.268454 -0.258978 0.474062
0.991067 -0.00784593 0.386413
0.768342 0.0890289 -1.34033
1.06351 -1.3384 -0.563811
-0.358708 -0.0441431 0.0781826
1.2213 0.346387 -0.295502
-0.0562532 -1.07936 -1.21808
-0.0163985 0.740529 -0.0165265
0.630358 0.196582 1.42816
-0.58638 0.183308 0.705444
0.535156 -1.03185 -1.21179
0.492247 -1.92725 -1.10231
0.467255 -0.808219 -3.05632
0.465006 0.325007 0.427354
-0.464068 -0.819033 -0.37238
-0.560833 -1.19113 0.130682
-0.753472 -0.229249 -0.927516
0.0624262 0.660652 -0.638909
0.275723 -0.145428 -0.326858
-0.0401258 -0.638701 0.118644
-0.973132 1.13104 -0.342692
1.9848 0.51733 1.05829
-0.176729 -0.860397 1.56388
-1.09576 -0.802273 0.414839
1.6614 0.891818 0.288933
2.61214 0.557332 -0.619503
-0.397607 0.995448 -0.693864
0.426985 -0.0667671 -1.58091
-2.96418 0.408129 -1.533
-0.029435 -0.164975 0.780342
-0.17824 -0.866017 -0.343926
0.987229 -1.66633 -0.450557
1.0135 -1.25639 0.592614
1.72378 0.562579 1.05202
-0.968261 -0.337905 0.263469
1.18599 -1.97914 0.110018
0.647012 0.899612 0.534141
-0.582598 -0.933805 -1.08234
-0.943417 -0.505302 2.54309
-0.74874 1.38087 0.818289
-0.412256 -0.0699504 -1.12635
0.998682 0.37081 0.0307442
-0.161894 0.357661 -0.199779
0.979507 0.288259 0.120051
0.639918 0.00431234 0.655047
-0.280239 -0.0138439 0.0679635
-1.10224 -1.37431 -0.281253
0.441299 -0.754474 0.425395
-0.677732 0.88309 0.162673
0.204625 0.568109 0.251243
-1.51968 1.63979 0.584691
-0.0391066 -0.741804 0.432157
-1.03643 0.277178 1.72017
0.66439 -0.97369 0.966493
-1.23731 0.745576 1.588
-0.174987 -1.19716 -1.60193
0.387504 -0.343994 -0.411298
0.0442048 0.800552 -0.220356
0.0994081 -0.172146 -1.44015
0.104634 1.64233 -1.16349
-2.96184 0.223316 -0.23278
-1.14132 0.445611 -0.598533
1.14136 0.934428 0.760987
-1.03613 -1.5269 -0.612353
-2.31667 1.32258 2.47918
0.20462 0.204918 -0.144875
2.49825 -1.10196 0.377941
0.708869 0.547187 -2.17351
1.0418 0.204632 0.8591
-0.871676 0.313242 -0.450527
1.07768 1.89496 -0.214814
-0.0239028 -0.064132 -0.830397
0.819346 0.210173 -1.26873
0.0758781 -0.206243 0.276643
0.531175 0.523064 -0.249512
-0.520805 -0.573821 -0.549493
-0.0955041 -0.17008 -0.0499917
-0.237753 -0.87972 0.52035
2.30678 1.04883 0.733921
1.98772 -1.2853 -0.250589
1.16452 -1.1548 -2.61918
-0.658871 -0.0271304 -2.48415
1.3732 -0.204698 -0.213393
0.321534 0.353379 0.395085
-0.539916 -0.434174 -0.575726
-0.00706519 0.0329756 0.0959356
-0.652598 -0.395246 0.725321
-0.293499 -0.200943 0.234929
0.848639 -0.134795 -0.927722
0.35879 -0.224599 2.85347
-0.353819 -0.447233 0.945131
0.291491 -0.0208057 0.0844986
-1.37049 -0.0188145 0.0993946
-1.8631 -1.30973 -1.95093
-1.52039 0.252389 -1.79037
-0.126821 -0.0468743 1.62911
-0.17691 0.0045298 -0.0468941
-0.402911 -0.62574 -0.573907
1.66776 0.158175 -2.13655
0.527576 1.13886 0.169996
-0.431059 -0.858512 -0.788498
0.152558 0.63447 -0.963378
-0.42845 -0.580917 -0.649438
0.246954 1.74839 -0.628284
-1.17164 -0.155048 -0.302205
-0.147848 0.345605 -0.490711
-0.464961 0.337314 0.065464
-0.766312 0.630116 -1.63826
0.220651 -0.3416 -0.175515
-0.490339 0.652246 -1.5206
-1.02287 -0.494161 -0.372446
1.0882 2.16128 1.28547
-0.57541 -0.538326 0.213233
-0.977327 -0.512147 -1.01633
-0.158196 0.520923 -0.201266
1.10378 -1.09141 0.818271
-0.00411203 -1.08651 -0.974478
0.0900696 -0.356264 0.439194
-0.199637 -0.61332 -1.1088
-2.43175 1.7263 0.466219
0.00334651 -0.711988 -0.63751
0.332085 0.0224993 -0.18972
0.19816 -0.3784 0.400918
0.611369 -0.247715 0.371274
-0.0684549 1.4735 0.0323835
1.54552 0.672902 -0.552051
-0.317935 0.80394 -0.600893
1.54741 -0.795264 0.936499
-1.47008 -0.106718 -0.864389
0.80128 -0.12581 -0.132618
-0.295722 0.305165 -0.538208
-0.2156 0.119128 0.240949
-0.280433 -0.243549 -0.47319
0.982767 -1.23019 0.161341
-1.10911 1.22327 1.39016
0.86516 -0.600916 1.24122
-0.674307 1.40157 -0.0243958
0.393612 0.442604 -0.1473
1.00306 -0.313889 -0.0667306
1.28921 1.21383 0.47888
1.08484 -0.276257 -1.28576
0.220954 -1.551 -1.93765
-0.13737 0.348665 -1.00174
2.26688 0.48625 -0.651099
0.488133 0.530423 -0.102686
5.33117 1.31143 2.74427
2.75655 -0.858821 0.656901
0.680468 -0.953766 0.640255
0.564746 0.0228856 -0.963655
0.0861099 2.41992 -0.706847
-0.313663 0.178305 2.41073
-2.05402 -0.733116 2.07718
0.100524 -0.86324 -0.196572
0.57017 -1.93238 0.651073
-1.23158 -0.867572 -0.62833
0.320944 0.00762485 -0.20076
-0.514961 0.0644727 0.375889
-0.879831 -0.172815 1.18888
1.01265 -2.41483 -0.263591
1.12841 0.804087 -0.783413
-0.380406 0.183112 1.32524
1.35216 -0.158255 0.23621
-1.29914 -0.381981 0.115426
-1.14228 -0.916797 -0.764434
1.05919 0.22653 0.589082
-0.444075 0.734604 0.942825
-2.25169 0.662731 -0.540739
-0.6014 -1.43985 -0.110139
0.124953 -0.190825 -0.298651
-0.465764 -1.20323 0.104742
-0.0046159 0.464037 0.00325907
-2.31438 0.576956 0.684375
0.188476 -0.36327 -0.118793
-0.279902 1.36658 0.208755
-0.262119 -0.268927 2.69102
-0.0686121 -1.66891 3.08175
-0.228642 1.26146 -1.44449
0.70933 1.05731 -1.25205
-0.81137 0.296733 0.211841
0.143383 -0.588556 0.372215
-1.15796 1.4648 0.317682
0.454256 1.04165 3.06747
0.160401 0.206799 0.57182
0.612383 0.210645 0.137695
0.418601 0.539215 0.35225
1.7789 -0.29633 2.12726
1.59432 -0.00682345 1.04473
0.832756 0.0374907 -0.307748
-0.854432 0.116229 0.216073
-0.156244 0.195298 0.23154
0.0894267 -0.193577 0.0235691
-1.08712 -1.02338 0.109309
-0.194438 0.244727 2.01088
1.28248 1.13479 1.93659
-0.413239 -0.37782 0.868177
0.624862 -0.0840713 -0.407575
-0.272816 -0.158386 0.13482
-1.4269 0.407589 -0.650118
-0.401175 -1.1876 -0.162586
-0.549095 0.101001 0.860576
1.12245 0.993376 -0.794278
-0.00664324 0.133921 -0.0952473
-0.531245 1.02367 -2.51445
1.40911 3.40701 0.301215
-0.350386 0.305447 -0.474577
0.708061 0.405489 0.0664901
-0.35865 -0.180857 -0.477036
-0.202396 1.17176 0.637456
-0.314755 0.575916 0.172751
-0.260654 -0.948983 -1.08685
-1.08033 -1.63413 -0.761377
0.502776 -0.183353 0.122849
0.827727 -0.672187 -0.720768
-1.07305 0.506559 -0.352359
0.100446 0.217649 -0.814347
-0.815733 0.909957 0.00522017
0.897188 0.851857 -1.42527
0.0590919 0.544575 -0.122803
-1.0574 -0.614761 -0.026651
-0.512456 1.13228 1.29424
-0.146334 0.20035 -0.392553
-0.460246 -0.202814 -0.0974863
-0.347965 -0.24032 1.25784
1.26088 0.212139 0.217698
3.44611 -0.138058 -3.04529
1.78931 -3.7643 -1.24554
0.248309 -1.91706 -2.46908
0.538724 -0.494963 0.205342
-0.43354 -0.6937 0.330486
-0.139396 -0.301592 -0.235906
-0.423702 -1.03858 1.93885
-0.86836 -0.831709 -1.59248
0.294191 0.239748 -2.30635
0.955535 -0.586242 -1.13437
2.53603 -0.82996 -2.03159
0.963178 2.15669 -0.931025
0.118617 -0.143263 -0.0293847
0.372853 0.412116 -2.46561
0.888272 0.101732 -1.04408
-0.813612 0.849982 0.61982
-0.600419 2.29789 1.32008
-0.407689 -0.730055 0.697671
-0.517099 0.127169 0.952924
-0.300178 -0.625543 0.340273
0.517049 0.711715 -0.51439
1.67153 1.31063 0.286338
-2.0348 1.65869 -0.0860829
1.08238 -1.0698 -0.628713
-1.16808 -0.992771 0.3176
-0.240607 -0.867772 -1.05408
2.25583 0.806011 1.88498
-0.0184602 -2.17238 0.306293
0.174116 -0.00340252 0.865818
-0.452149 0.874964 0.281944
-0.4347 0.630989 -2.08301
-0.244899 -0.172009 0.314331
1.34802 -0.396734 -0.811315
-0.360374 0.2218 -1.03893
0.223758 0.97617 0.102375
1.29201 0.533305 0.336075
-0.786348 -1.35865 0.577765
0.674577 -0.81864 -0.396678
0.376527 -0.471607 0.820899
0.458056 0.350277 -0.043652
-0.0638538 -0.393956 -1.97345
0.702366 1.17802 -0.743777
0.0940328 -0.277827 -0.415895
1.62773 -0.743424 1.36536
0.58963 -1.11901 0.443504
-0.643906 -0.745699 2.16859
-0.583835 0.692563 0.0507713
-1.33002 0.151629 -0.387367
0.405986 1.07823 0.332795
1.61275 0.840181 -0.658667
-0.536881 0.339053 -1.05269
0.177687 1.69313 0.162894
-0.489577 1.37457 -0.280412
-1.26681 0.0206284 0.238489
1.23345 0.439439 0.260779
-0.351159 0.316861 -0.0185143
-0.0262828 0.26701 0.68402
1.97895 -0.8585 -0.876434
1.00043 1.88931 0.655957
-0.891693 0.318669 -1.68314
0.504479 -1.14951 -1.83011
-0.325127 -1.32328 -0.0649203
-0.381852 -0.705651 0.720906
-0.891199 -0.55869 0.314795
0.27714 0.557964 0.574235
-2.28362 1.74383 -1.07608
-1.68339 1.70687 -1.11714
-0.633399 0.852587 -0.872252
-0.378547 -0.616013 -0.695527
-0.516756 -0.150984 -0.696564
-0.00327888 0.443594 0.421736
-0.678993 0.236213 0.204788
0.646828 -0.281265 0.340836
0.151454 1.0108 0.249643
0.0752704 -0.469628 1.24607
0.350757 0.470854 -0.70173
-0.64911 -0.0545759 0.960704
1.2295 -0.210385 0.549997
-0.0775077 -2.48434 0.73159
-0.456228 0.984133 0.329477
-0.526103 -1.34349 -0.614382
0.847454 -0.221852 0.000532047
-0.593333 0.91316 -0.00877641
2.12809 -0.400555 0.49353
1.78171 -1.80139 0.771931
1.59811 -1.85609 -0.744507
0.0757417 -0.357975 -0.341703
-1.3176 -0.767082 1.30445
0.32746 -0.484203 -0.0883511
-0.233447 0.865494 1.04351
0.483449 0.0519726 -1.23263
0.704896 -0.456826 0.180409
-0.819563 0.640435 0.212002
-0.263156 0.288921 1.28251
2.86823 -0.0250702 1.26884
3.33884 2.16346 -0.388733
-0.441775 0.673262 0.172365
0.824206 -1.34964 0.691677
0.615045 1.13352 -0.244046
-0.217629 -0.498212 -0.621186
0.563862 2.63654 -0.992289
0.639485 0.625193 0.761086
-0.466617 1.42798 0.61748
0.90924 -0.704326 -1.53061
2.3371 -0.639002 1.16911
-0.685407 -0.491835 -0.72638
0.247477 0.0505487 0.120632
1.49464 1.26975 -2.24708
1.34973 -1.42557 -1.01707
-1.3278 -0.939073 0.831748
-0.265475 0.260874 0.0547359
0.232692 0.100581 -0.120474
0.0349667 0.446969 0.195277
-0.716687 0.918613 0.449647
0.360361 0.482194 0.595234
-0.642232 -1.03299 0.535928
0.588731 2.55874 -1.19299
1.07671 -0.127385 1.26507
0.465365 -0.80313 0.666307
-0.3638 -0.281547 0.973253
-1.21562 0.947148 0.180252
0.735451 -1.42632 0.134267
-0.189525 0.334051 0.334319
-0.262847 0.973804 0.257302
0.469755 -1.53707 -0.616884
0.772255 -0.249548 1.37617
0.442661 -0.396678 0.0885835
0.404254 0.172512 -0.242799
-1.54019 -0.166829 -0.0550703
0.0825552 1.46129 -1.20529
2.29987 -0.122455 -1.48383
0.0860618 0.848154 0.770121
-1.02855 1.12551 0.158975
0.831148 -0.157282 1.53351
-0.596494 0.0824264 -0.507487
0.337831 -0.771601 -0.0626557
0.344941 1.21996 0.388214
0.619051 0.195354 1.5018
-3.12886 1.96534 -0.561029
-0.534951 -1.16531 2.25444
-0.15153 -0.269936 0.0917914
0.112562 -0.0514127 -0.187926
0.303326 -0.75964 -0.382653
0.0699007 0.663574 0.247775
-0.390968 0.119098 0.480921
-0.824068 0.789561 0.207792
-0.222707 0.872269 -0.641282
-0.389591 -0.0384445 0.552041
0.990572 0.772462 -0.360661
0.150974 -0.799178 1.18981
0.560132 0.440635 -0.875317
1.85055 -0.125208 -0.256284
-0.893756 -0.532296 -1.12159
0.624054 0.445318 -0.136444
0.829691 -1.0092 -1.5376
0.176273 0.0874179 0.860171
-1.28497 0.349627 -0.207211
-0.501342 -0.656894 1.00877
-0.633779 0.0194019 1.34905
-1.67746 2.77565 2.77062
-0.0109877 1.07715 0.216218
-0.194701 0.666294 1.52388
-0.169436 0.534424 1.07849
-0.754399 -3.21121 0.739227
0.496085 0.911804 -0.990372
1.04163 0.226967 0.152433
0.0641361 2.56984 0.055651
0.112021 -0.0647543 -0.334728
0.325231 0.30538 -0.892019
0.0772002 -1.38259 0.346057
0.893022 -0.529113 -0.537332
1.24503 -0.28814 -0.176973
2.00397 -0.354309 -0.504566
2.82077 -1.82053 -2.40986
0.209371 1.71129 0.11142
-0.0791218 -0.508444 -0.380979
1.13476 0.0727105 -0.31927
-0.349093 -0.0872474 0.158146
0.570491 1.82814 -1.21997
0.548011 -0.0478724 -3.69598
-1.71757 -2.61966 -0.711537
-0.651573 -0.266882 -1.55692
-1.90988 -1.66503 1.32973
0.38524 0.0471926 -1.08223
-0.749547 -1.38756 -0.141479
-0.708226 -0.52159 -0.266877
0.3014 -0.306601 -0.847891
-0.472679 0.869542 -2.63086
-0.0952246 2.36744 1.04671
-2.0362 1.35731 -0.216447
-0.0852872 0.395734 0.208357
0.0380026 0.159229 -0.0182737
0.477656 0.197901 -0.455972
1.2186 -0.605989 0.545319
0.571835 0.963627 1.04682
-1.57712 -0.247935 -0.377336
-0.252497 0.336914 1.69978
-0.649873 0.179112 -0.747489
-0.864056 -0.11368 1.24125
0.521856 -1.31904 2.18367
0.409744 -2.11672 0.0672662
-0.296593 -0.566403 1.2328
-0.390055 -0.0153221 -0.240103
-3.91702 0.529066 0.454172
-0.706671 -1.80229 1.09175
1.07489 1.38657 0.491887
-0.816985 -1.831 0.944681
0.756614 -1.20373 -0.635578
-0.536174 2.23482 -0.464958
-0.00620596 1.09358 0.753915
-0.186561 -0.0714939 -0.230136
-0.435379 1.16067 0.814502
0.524807 -0.0344311 -0.175116
-0.720617 -0.138048 0.313015
-0.10669 -2.5898 1.72839
-1.30956 -0.435815 0.133873
-0.0337872 -0.133111 -0.378994
0.0648331 0.340579 0.579141
-1.02452 0.242238 -0.948078
0.392593 -2.17421 -0.947053
0.472136 -2.4537 -0.512327
0.178838 0.588335 0.321033
0.297202 0.71025 -0.417438
1.63467 -0.598026 0.526539
0.553776 -0.488356 -0.881589
1.18448 -2.08499 -0.00480942
-0.406535 -0.604582 -0.628235
-0.325958 -0.510846 0.646031
-0.221851 0.369356 -0.161789
-0.249281 -1.16192 -0.909422
-0.332308 0.44647 -0.28529
-0.0563454 -0.313546 -0.553598
-0.050443 -0.0397628 0.383038
-0.523306 0.174721 0.998665
0.781923 -1.20884 0.902747
-0.165418 -0.282362 -1.20091
-0.43959 0.545542 -1.08334
1.63099 -1.1601 0.854022
0.229536 0.410033 0.015003
-0.110856 -0.840108 -1.51637
0.447762 -0.576243 -0.0633793
0.597292 -0.851571 -0.574193
0.0694358 -1.37439 -1.0631
-1.22715 1.26424 0.134025
