-0.431543 0.886123 -0.913487
1.13703 -0.810014 0.700017
0.428725 -1.94962 0.328341
-0.475613 -0.297146 -0.50411
1.04728 0.205681 0.79893
-0.434708 -0.321217 0.853039
-0.493293 -1.52735 -0.198092
-0.749321 -0.960925 -0.650396
1.04288 -0.330659 0.572789
0.313993 -0.885906 -0.343752
-0.835687 1.1842 0.609084
0.427226 0.605471 0.41362
0.09133 0.382396 -0.410986
-1.16686 -1.97822 -0.448018
0.624975 -0.44401 1.01341
1.60318 1.18493 0.343415
-0.958992 -0.177932 -0.818836
0.209983 0.220244 0.320018
-0.95194 -0.346204 1.20466
-0.417115 -0.664766 -0.075008
-0.00848416 -0.754528 -0.204562
0.598011 1.25566 0.667135
0.0320353 0.34769 -0.457675
1.12777 0.0411131 1.04882
0.34941 0.277188 0.623093
0.538039 0.670751 -0.819834
2.04763 0.807797 -0.308179
-1.74635 0.398281 -0.584232
-1.33143 1.80881 -0.368527
1.36499 -0.470735 -0.597521
0.186962 1.33948 1.09096
0.583439 1.07729 -3.74639
-3.61565 2.01737 -1.76753
0.106933 0.221191 -0.14257
0.194801 -0.193477 0.297915
0.194801 -0.193477 0.297915
-1.19803 -0.37096 -0.570833
-1.15102 0.582719 -0.618007
-0.969367 -1.07427 -1.62197
0.0038787 -1.11866 1.45136
1.71744 0.22036 -0.211249
-0.176472 -0.0444278 1.22581
0.268373 -0.25845 0.413622
-0.526738 1.056 0.864361
-0.0645665 -0.116938 -0.0813763
-0.623237 1.18249 1.15058
0.33627 0.937184 -0.294902
1.61682 0.828129 0.981709
0.0287863 -0.0771867 0.0676242
0.822992 -0.101472 -1.06529
0.44438 -1.72123 -1.81554
-0.874616 3.72228 -0.731871
0.482027 2.09206 1.3523
-0.724161 0.610489 -0.406872
0.91874 -0.181681 -1.98337
1.20343 0.239676 -0.538937
2.18244 0.758238 -1.62466
-1.08571 0.479956 -0.749724
0.439405 -0.763648 -0.033213
1.23867 -0.256419 -0.670333
0.879168 1.3586 -1.03962
-0.229204 0.414987 0.180782
-1.27964 -0.360848 -0.0692861
-0.767329 -0.946365 1.16215
1.38979 0.961551 -0.217801
1.09853 2.37195 0.574936
0.678673 3.94123 -2.26586
0.783548 0.923734 -1.08357
-1.40973 1.19311 0.659281
-0.582625 1.97036 0.792973
-0.22294 0.584274 1.41684
-0.275285 2.25711 0.363847
0.232674 0.393637 -0.674843
-0.200815 -0.0417052 0.0421343
-0.914682 0.451178 -0.743021
-0.685653 -0.0707703 0.835884
0.1682 1.79589 1.24632
0.312822 -0.276072 0.243936
-1.13101 0.646653 -0.824776
-0.357132 1.14447 -0.0966173
-0.147069 1.48421 -0.552307
-1.40642 1.61917 -1.59026
-0.36167 0.464165 -0.679253
1.24578 -0.707106 -1.26622
0.167484 -0.288383 -1.43537
1.3393 -1.86673 2.33112
0.306227 0.418127 -2.29583
0.161805 -1.8152 0.417481
-0.314775 -0.794631 -0.270659
0.0351511 -0.138136 0.525252
2.43606 0.637521 0.753093
0.881396 0.721707 -1.12482
-0.769287 1.35793 -0.618112
0.589071 -2.10308 2.63775
1.02781 0.436233 -2.55001
0.104172 0.837187 -0.153736
-1.13831 -1.02606 0.783248
0.0855826 0.206993 -1.09314
0.569378 -1.09483 -0.301891
-0.626584 0.469879 -0.0649083
1.063 -0.175635 0.319228
-0.220371 1.14598 0.849641
-0.0768818 0.988707 -2.22947
-0.266388 -0.169498 -0.904374
0.209295 1.10614 -0.969014
0.0203539 -0.219137 -1.89317
-0.0921388 0.0129266 -0.748446
2.56991 -0.623751 1.11518
0.52521 0.149822 -0.141636
-0.20066 -0.106075 -0.356361
-0.455752 -2.62821 -0.883331
3.42082 -0.484015 -0.682808
-1.13809 -0.620367 0.144677
0.493329 0.803599 -1.00101
1.24458 0.42601 -0.115924
-0.71832 1.22159 -0.797581
-1.42984 -2.92927 0.957597
0.0338426 -0.49541 -0.279702
-0.428639 0.860432 0.36586
-0.330172 -0.715019 0.720224
0.107501 -0.7423 -0.735047
0.528491 -0.298395 0.210745
-0.490606 -1.69522 -0.557676
-0.778761 -0.415866 -0.997194
0.243163 1.11329 -0.18825
-0.701606 -0.0493411 -0.0380462
0.838499 -0.498698 -0.584297
0.462179 -0.506758 -0.104812
0.902674 0.765739 -0.583412
2.157 -0.381162 -3.01713
0.314533 0.412551 0.467943
-0.971595 -0.858203 -0.371087
-1.23681 1.78838 -0.118085
0.304193 -2.9041 0.36168
-0.646028 -0.155301 -0.195538
-0.221411 0.451473 1.5031
-1.20641 -0.893073 0.941907
2.05907 1.652 1.98843
-1.05753 1.02277 0.405197
-0.208655 0.117686 0.363495
1.03619 -0.863936 1.8334
-2.20814 0.27066 1.32587
0.347117 -0.219209 0.295075
-1.44922 0.333519 0.422596
0.415163 -0.121039 0.818371
0.874489 0.366579 0.686034
0.0363196 -0.243107 0.680143
-0.634628 -0.544361 0.51631
0.551018 -0.99562 0.549957
-0.0977412 -0.221828 0.564373
-0.0586367 0.464102 -0.177882
-1.49326 -1.33244 -0.654697
-2.18143 0.471705 -0.910279
-0.0951775 1.22018 0.169783
0.917768 0.345948 -0.0939115
1.03326 0.452101 0.360202
1.20431 -0.323437 -0.329023
1.7953 0.495873 -2.01704
1.02979 -1.15368 -0.949833
-0.46008 -0.104911 -0.658215
-1.96546 -0.767839 0.910176
0.858244 -0.251245 -0.558119
0.957778 -1.96671 -0.855548
-0.30421 -1.0818 1.15743
2.27291 -1.58916 -1.26817
-0.521825 0.68588 -1.5402
-0.64777 0.600687 1.32795
0.424111 0.772046 0.0277917
-0.885899 1.34166 1.07607
-0.40433 -2.33868 1.37394
-0.787222 1.29405 -1.10341
-0.0331746 0.025639 -0.0394701
0.872006 -1.76401 -2.25892
1.22217 0.46455 -0.792161
-0.650397 -0.667357 0.521597
-0.500696 -0.185481 0.0142278
0.189549 0.322256 0.656335
-0.569902 0.988775 -0.550373
-0.37265 -1.57877 1.96429
1.1763 2.05438 -0.624426
-1.01404 -0.418391 -0.25395
0.705243 -0.0712599 -1.45669
1.34957 -0.132176 0.398518
1.85138 -3.33527 -4.94196
0.553394 -1.29493 -0.631871
-0.495343 0.0117638 1.02238
-1.20209 -0.446612 0.738501
0.561857 0.181326 -1.26153
0.445381 -0.247358 0.50936
0.615321 0.361288 -0.00618764
0.437062 -0.333412 -1.34449
0.74587 0.93966 0.991471
0.731204 0.1963 -0.114089
-0.912255 -0.176168 -0.753599
0.397446 -1.64658 1.27755
-1.00228 -0.197964 0.80608
-0.0280328 -0.995183 0.308569
1.04552 -0.738967 0.47435
0.0740542 -1.13234 -0.151426
-0.00605357 -0.460593 -0.315879
1.28279 -0.0629285 0.921104
-0.436086 -1.80584 0.141796
-2.2753 -0.154632 -1.60339
-0.230997 -0.473558 -0.552376
-0.0146211 0.286479 -0.745516
-0.136977 2.13905 -3.85827
0.965203 0.297939 -0.333553
-1.79995 0.580373 -0.584856
-0.787347 1.06134 0.726076
-0.905285 0.15641 -0.265953
0.310482 -1.25975 0.221281
0.344679 0.902075 0.830228
0.416535 0.868956 -1.2825
0.519622 1.06888 -0.306706
-0.514956 0.56193 -1.39569
1.62673 0.280285 -0.562476
-0.630439 0.395652 -0.367974
1.00953 -1.6784 1.04179
0.169115 0.131592 0.956564
-0.344242 2.40846 -1.82884
-2.1907 -0.563823 0.260786
0.642695 -0.885979 -0.275698
-0.254742 -0.0973636 -0.0871922
-0.198336 -0.405162 -0.571253
0.333327 0.233921 0.698067
1.31615 0.516385 -1.00144
0.0569355 0.24291 0.0309117
0.711674 -0.106677 -0.0783113
-1.47995 -1.22696 0.943454
0.53355 -0.612101 1.98189
1.32692 4.43254 1.50242
-0.0142624 3.13188 1.39961
2.56922 0.436214 2.64357
1.25572 1.90977 0.659965
0.970827 -0.754118 -0.642348
-0.730633 -0.272651 0.477937
-0.371844 -0.270997 -0.16565
2.04945 -0.817521 0.295747
3.27283 0.330459 -0.781047
0.317676 -0.72188 -0.514481
1.2597 -0.457974 0.899544
0.66393 0.219802 -0.351986
-0.469591 0.309874 -0.859721
1.02113 -0.0276724 0.159411
-0.187119 0.952503 0.606008
1.87346 2.48 -0.777402
0.865781 0.414576 0.225612
-0.62355 -0.532264 1.00029
1.09471 -1.74225 1.36523
-0.19716 1.14484 0.162538
-0.362627 -0.580232 0.0705416
0.225307 -0.774759 -0.45139
-1.19981 -0.650863 -1.58798
-2.37377 -0.270822 -1.94163
-0.417079 -0.503661 -0.917784
-0.406258 0.617748 -0.665424
0.547965 0.991202 -0.319993
1.16054 -0.420941 0.0160644
0.607771 1.86938 0.524835
0.629321 1.88504 -0.89331
1.96555 2.47073 -1.76934
-0.346015 -0.519913 0.14117
0.415363 -0.424758 -0.337509
-1.42269 -2.09974 0.759574
-1.17592 1.55602 1.88423
0.777049 0.641265 0.302877
0.27867 0.73509 0.898497
-1.6378 -1.04934 0.936142
-0.566844 -0.271128 0.311539
1.31901 1.98645 -0.0857854
-2.68437 2.80794 2.5115
-2.38965 2.49438 1.33183
-1.03345 -0.160802 -0.815046
0.275019 -1.38215 -1.32138
-1.16069 -0.136625 -1.67474
-0.41112 -0.317694 0.526571
2.10403 -0.644688 -0.0155554
0.629481 -0.0209472 -1.54377
0.0700497 1.46826 -2.10254
-2.25577 2.70291 -1.81148
0.327925 0.618351 0.722746
-0.253338 0.366673 0.506895
0.611855 -0.620958 -1.72811
-1.05371 -0.718629 0.0893961
-0.139941 -0.682699 0.0533985
0.285136 -0.748627 2.60691
-0.611065 0.239548 0.322487
-0.13283 0.766355 -0.10037
-0.721491 0.221465 -0.154103
-0.4933 -1.36406 1.57737
-0.390869 0.481354 0.0999356
-0.478784 0.732839 -1.3502
0.809789 0.595352 -0.28902
-1.20377 -0.339255 -0.141206
-0.00778501 -0.427529 0.481703
-0.0502647 -0.287663 -0.0908711
0.133508 0.154495 -0.177851
-0.68025 -0.0422379 0.0689116
0.118103 0.769676 0.682597
1.03254 0.919014 -0.122234
0.144106 -0.296542 1.02154
0.441313 0.680745 -0.199938
0.970986 -0.433416 -0.994025
0.68566 0.163272 0.692008
-0.908509 -0.970527 -0.420621
0.512236 2.05277 -0.572154
-0.114109 0.632747 0.807078
-2.14856 -0.340421 -0.763542
0.653196 -0.167446 -1.02878
1.36865 1.13524 -1.45685
0.579295 0.245166 1.24676
-0.939469 0.104451 0.813204
-0.224592 0.110103 -0.323661
0.788047 0.260177 0.406806
-0.535901 -0.438085 -0.186808
-0.242025 0.422046 -0.689152
1.31253 -1.38964 -0.262443
0.309617 0.847028 0.141446
-1.05601 -1.19251 -0.40362
0.0763248 0.610889 -0.933367
0.239377 0.591109 -0.164298
-0.431287 0.0518377 0.309062
-0.531182 -0.730724 -0.149282
-1.598 0.138063 -0.676027
0.805733 -0.234696 -3.60226
-0.0951718 -0.485013 0.296336
0.507299 -0.141845 -0.378082
1.53311 0.00248904 -0.984071
-0.516477 0.0346566 0.263459
-1.06209 1.98386 0.124562
-1.44997 -0.0464851 -0.100886
-0.796856 -0.395833 -1.06895
-0.688211 0.280937 3.35116
-0.320151 0.625121 -0.390058
0.887178 -1.03175 0.174701
-0.487704 -1.04897 0.519177
1.22407 0.684237 -1.23047
0.685745 -0.19516 -0.434117
0.290019 -0.0447037 0.0595149
2.19004 3.882 2.11672
-0.304913 2.88649 -1.3529
-0.430429 -0.868642 -0.306379
0.606009 -1.41235 0.749418
0.770201 -0.358997 1.36208
-0.567636 -0.680696 1.2566
-0.127974 0.600544 -0.912032
0.584826 1.64226 0.0143252
-0.840504 0.215911 -0.494987
0.358174 0.584033 0.370692
0.603548 -0.518419 -0.64085
0.27498 0.649403 -0.679066
-0.520639 0.219237 -0.284145
0.291035 0.723592 -1.06393
0.596807 1.48632 -0.9531
1.04271 0.683627 -0.955848
0.432272 -0.524005 1.28118
2.99985 1.30275 0.0624134
-1.75493 -0.34141 -1.13085
0.366881 0.0557813 2.00903
1.59751 0.330465 -1.11862
-0.251579 -1.41868 -1.58128
-4.11607 -0.988753 -1.00574
-3.32176 -0.319233 0.297951
0.12745 0.575148 -0.558117
-0.73793 -0.0200373 0.315517
-0.225439 -0.608465 1.31778
1.05449 0.166089 0.531132
-0.133386 -0.298134 -0.108356
-0.805127 -0.0514069 0.334597
-0.230379 -0.830185 0.21969
0.764907 -0.799633 -0.98648
-2.44698 1.50641 0.595567
-1.1458 0.118803 -0.27619
0.0629434 -1.04618 -0.735807
1.94368 0.965353 -1.09064
0.183826 0.629159 0.0963652
-3.15945 1.59144 -0.302023
-1.5194 0.941667 -1.84355
0.460422 0.450119 0.530383
0.587711 0.450192 0.172443
0.492979 0.249026 -0.609737
-0.807899 0.765837 0.614484
-1.03344 -0.672371 -0.365389
-0.773135 -0.0455336 0.65453
-0.718056 0.147092 -0.886684
0.653553 -0.239882 -0.942214
0.418 -0.764829 -1.04703
0.288483 0.370846 0.0114193
-0.735509 0.473838 -0.132817
1.52371 -0.110854 -0.173991
-0.49913 -0.213493 0.312035
0.887701 -0.0327836 -0.934994
0.662031 -1.25899 1.94346
0.352928 -0.446231 0.0345492
0.642869 -0.576816 0.228814
-1.63525 -0.612213 0.668879
-0.160191 0.623537 -0.0746905
-0.175832 1.50753 -0.376414
0.68167 1.00618 0.303227
0.292858 0.363088 0.631743
1.52428 0.399206 -0.0472907
0.0827905 0.65282 0.285986
0.325333 1.07968 1.05125
-0.44113 0.178226 0.561708
0.535054 -0.0661959 -0.644206
0.0670104 0.892105 -1.94134
-0.811499 0.608814 -0.74821
-0.50429 3.69156 -0.232005
-2.64374 1.24945 0.284395
0.168287 0.095869 0.891683
-2.43822 0.267385 -0.114501
-0.424771 -1.04315 0.486696
-0.237279 0.263228 0.0569371
0.376667 0.18014 -0.49903
1.99962 0.029525 0.0403845
-0.822017 0.566263 -1.35173
1.32419 -0.633214 -0.544031
0.240121 2.31233 0.210778
0.626933 0.529121 -0.0134785
-0.365417 0.974034 0.380884
-0.0828478 -0.101834 0.469258
0.792784 -0.692554 -0.791032
0.103812 0.057826 0.0674944
1.16705 0.770479 -0.168309
-0.550814 -0.207247 -0.53938
-0.103222 -1.13277 0.00448449
-0.00639122 0.638513 -0.915298
0.182605 0.927744 -0.854294
-0.553825 1.01655 -0.242225
0.145809 0.290556 1.13559
-0.25577 -0.0350194 -0.188004
-0.484262 0.639433 1.44423
0.866519 0.670501 -0.785483
0.105089 2.78339 -2.10995
-0.535645 0.28947 -1.1166
1.4381 -0.507904 -0.16303
1.49471 0.145262 1.76533
0.998681 -1.88978 1.42224
-0.194769 0.637969 -0.79433
0.242424 0.410206 -0.645729
-0.0981492 -0.0185697 0.642867
-0.125109 -0.494746 0.241352
-0.0154509 0.0793173 -0.837346
-0.0731093 1.56192 -0.725658
0.36006 -0.258364 -0.407405
-0.235546 -0.376005 0.156042
1.17478 0.91754 1.06073
1.16434 -0.393329 -0.223615
0.064547 0.130477 -0.340564
0.064547 0.130477 -0.340564
0.346602 0.306163 0.222252
0.958417 0.963312 0.326802
-0.340433 -0.412532 -0.150175
0.58669 -0.415689 0.757682
-0.44259 2.36736 -0.444742
0.206612 1.57539 1.34091
0.882507 -1.28316 0.373966
-0.238749 -0.0392828 -0.539864
-0.0598831 0.630165 -0.475008
0.495046 0.503307 0.862821
1.41541 0.62313 -1.08511
0.589314 1.53887 -1.37395
-0.735012 -0.0953472 1.48321
0.462525 0.587072 -0.7684
-1.66478 0.821954 0.689373
-1.43252 -0.511977 -0.383262
-1.17379 0.60466 -0.240989
1.7552 -0.117252 0.0703493
0.273861 0.341815 0.108266
-0.220718 -0.0837952 0.252396
0.484033 -0.326929 -0.416759
1.03388 -0.406604 1.04142
-0.153512 -1.13627 -0.350245
-0.870282 -0.53598 -0.330936
0.983763 -0.0740898 -0.436554
0.268988 -0.848093 -1.73634
0.513355 0.721886 -0.317997
0.640562 0.281448 -0.20731
-0.157384 -0.585382 -0.403747
-1.14336 0.444079 -1.70741
-0.736352 0.201908 -1.45142
-2.08804 -0.760116 0.669939
-0.608371 2.33735 -0.077799
-0.238278 0.267942 0.136938
1.76669 -0.912914 -0.00213517
0.608553 -0.782349 0.406989
-0.354018 -0.344577 -0.546985
-0.39763 0.681541 -0.471129
-0.809616 -0.323261 -1.35511
-1.99235 1.44654 0.85975
-0.32497 -0.451837 -4.18873
-1.12709 0.934856 0.0702557
-1.67771 0.0239026 -1.3235
-0.45614 0.439255 -1.14104
0.359133 -0.402088 -0.179211
-0.881261 -0.246416 -0.754313
1.66242 -1.52212 -0.918225
0.15671 -0.0799198 0.425107
-0.282851 -0.648995 0.389149
0.388106 0.423259 -0.287426
-0.20368 0.902741 -0.449783
0.665243 -0.16721 -0.556329
-0.829215 -1.18895 -0.868689
-3.54701 1.16877 2.17329
0.49617 0.85686 -0.302159
0.537803 -0.632654 -0.242669
-0.210929 0.378915 1.01542
1.24857 0.00127381 -0.0858272
-0.309155 0.178836 -0.866348
-0.0160186 -0.49281 0.0883496
-0.242825 -0.217597 -2.7147
0.283707 0.589305 0.743694
1.2336 -1.95473 0.123949
0.937392 -0.267931 1.7209
-0.0443326 -2.06088 -1.06389
-1.36092 0.0978942 1.11158
-0.162437 -0.656226 -0.225278
-0.150941 -0.104298 0.585421
-0.431423 -1.6558 1.15879
-0.146765 0.542926 0.0888103
2.58466 -0.933531 0.0433786
0.444982 -2.14257 -0.74376
0.229467 -0.792655 -0.589936
0.31402 -1.7083 -0.732585
1.72927 0.900929 -1.01036
-0.311281 0.0191544 0.870572
0.850735 2.28074 0.398481
0.130366 -0.284984 1.42135
-0.601854 0.115952 2.02006
0.560138 1.01215 0.172971
0.48002 -0.103719 0.193176
-0.100693 0.197246 -1.70261
-0.650122 -1.11628 -1.40806
0.334474 1.31678 0.230783
-2.49763 1.74982 -1.4996
-2.90657 -1.63641 2.51272
-0.0411309 0.354824 -0.704605
0.790067 -0.184505 0.446357
0.117308 0.44487 1.01102
0.298754 -0.127321 0.31302
-0.40225 -1.35767 -0.00152273
0.0959145 -0.546845 0.298979
0.222002 1.64671 -0.642959
0.000979483 1.30437 -0.233377
0.0718191 -0.20495 -0.434857
-1.64062 -0.45776 -1.14312
-0.0954911 -1.25011 -0.801996
-0.923457 0.545445 -1.7789
-1.1749 0.0308985 -1.9536
0.567493 -0.138456 -0.861426
-0.727815 -0.983007 -1.92225
-0.858531 -1.56772 -0.106328
1.63788 -2.20779 0.690333
-0.639193 -0.77748 0.634716
1.15067 -0.480387 -0.395266
-1.21158 0.508589 1.48717
-0.404285 0.025865 -0.292557
1.45998 -1.10307 -1.34711
-0.784715 -0.26561 -0.510904
-0.64204 -0.469284 0.722683
-0.501343 -0.466393 -1.73776
-2.51863 -2.68016 0.0671938
0.365942 0.37727 0.616772
0.499855 -1.50407 0.354506
-0.99424 0.990902 0.387765
-0.385828 0.179445 0.724499
1.02228 -0.337072 -1.86867
-1.84135 -0.952308 0.560239
-1.18104 0.611018 0.0220065
0.229863 0.485629 -0.433915
0.702359 -0.0350463 -0.402032
0.362307 0.993563 -0.0677005
-0.463932 -0.626809 -0.541822
-1.61415 0.607918 2.11013
1.26638 2.79349 -1.69605
0.782539 -1.20348 -0.583887
1.51472 -0.282633 -1.22144
0.718401 -1.82948 -0.486896
-0.568648 -0.460719 0.529921
0.260263 0.428004 -0.918472
-1.32179 0.549252 -0.833135
0.529477 0.724073 -0.718837
-1.41052 2.94359 -1.25693
-1.21404 1.06121 0.527838
0.213972 0.0552823 -0.963601
-0.415416 -0.941264 -0.914206
-0.00913324 -1.12054 1.09348
-1.2622 -1.23704 -0.122326
-0.721642 0.0962739 -0.892971
0.144901 0.317467 -0.0162996
0.0639368 -0.546905 -0.776618
-0.218422 -0.176473 1.39294
0.425735 1.01426 -0.58055
-0.0813198 -0.750616 0.184559
0.475443 -0.258222 1.33399
2.13453 -0.54692 1.27527
0.378383 -0.0235797 -0.151841
-1.4268 0.509022 0.898702
-0.453209 0.778628 -0.660305
0.468414 -0.276464 -0.036203
0.534284 -0.12202 0.112348
2.95952 0.341473 0.431428
1.4492 0.455271 0.114624
0.206294 0.793536 -0.0076176
-0.19614 -0.0271253 0.632702
1.16108 -1.52428 -1.25776
-0.421533 0.594356 -0.443845
0.816395 -0.0269518 -0.109323
-0.200607 0.679356 -0.147761
-0.455308 1.66225 0.192989
1.07973 -0.785866 -1.00294
0.865002 -0.593732 -2.06244
0.597498 0.357912 -0.646249
-0.387406 0.684242 -0.465741
0.276702 1.46354 -1.17111
-0.191851 0.515125 -0.0221678
0.363082 1.10838 -2.92249
-0.461203 -0.0993941 -0.0324803
0.444296 0.886015 -1.41101
-0.247478 -0.473675 -0.244033
-0.668616 0.703276 0.548998
1.61707 0.946965 -0.937277
-0.368256 0.25078 0.491232
-0.662488 -0.991796 -0.634125
0.175649 0.221157 -0.356956
-0.640967 0.164326 0.719669
-0.677384 -0.642304 1.22679
-0.55481 0.939382 0.494053
0.279872 0.506526 0.294792
0.213316 -0.0565279 -0.258707
-0.4825 0.414618 0.150077
0.567097 0.0362219 0.47175
-0.948877 0.463603 0.634275
2.26032 1.84626 1.85538
0.981601 -1.12763 -0.0320597
1.78227 0.865041 -0.74576
0.39032 0.244453 0.623701
-1.21918 0.489482 -0.65234
0.223993 1.01841 -1.95023
0.68149 0.11813 0.315365
-0.0123148 -0.370173 -2.75989
-0.181542 0.394929 -1.28108
0.568114 -1.60218 -0.309178
0.560302 2.05203 -0.697631
-0.243044 1.73215 -1.30479
1.18696 0.377499 1.24898
-0.445648 -0.613185 0.12736
0.0798467 -0.991435 -1.34352
-0.783459 -0.221004 -0.810752
1.20734 -1.27172 -0.206029
-0.415227 0.37437 -0.790515
-0.048562 -0.16096 -0.0852919
-0.0109953 -0.298806 -0.101678
-0.625431 0.567746 1.00411
-2.01093 -0.644493 -0.612207
-1.02022 -2.51964 1.60529
1.90781 -3.16058 1.09584
-2.92993 -2.62531 0.386928
-1.60123 -0.273101 -0.433348
-0.198448 -0.170625 0.306621
0.831569 0.00428025 -0.117892
0.680594 0.132581 -1.37956
0.524229 1.47252 -0.592158
-0.107556 0.905063 0.161021
0.127357 0.23637 -0.473178
-0.790949 -1.29908 -2.53705
-1.57506 -0.591714 -0.546956
-0.671178 -0.435864 0.0716302
0.151839 0.0939709 0.228148
0.486631 0.462029 -0.181772
-0.252072 1.4681 0.298616
-1.13602 0.343088 1.16252
1.87734 0.511616 1.33241
-0.170932 0.12054 -0.087234
-0.170932 0.12054 -0.087234
0.724399 0.0596558 0.000228318
0.238147 -0.0603458 0.770961
1.29578 0.106297 0.036283
0.0409054 1.17727 1.51974
0.281803 0.140695 0.033617
-0.595828 -0.395345 -0.781768
-2.42289 -0.196295 -0.540771
-0.152674 0.712815 -1.0394
0.276943 0.0155264 -1.22251
-0.635969 -1.15269 -0.340734
0.627822 0.873261 0.356408
0.695722 0.200793 -0.846815
0.907272 -0.524346 0.299126
1.4031 1.22674 -1.14368
1.4828 0.156168 -0.233867
1.495 0.223246 0.272579
-1.0908 2.03703 2.4725
-1.58518 2.43456 2.78125
-0.338385 0.191518 -3.23931
-0.790887 2.50645 -0.426467
-0.00124739 -0.476326 0.125616
-0.339296 0.598109 0.416272
0.608487 -0.218077 0.188764
0.252579 -0.163516 -1.57132
-0.794853 -0.589884 -0.782033
-0.551198 -1.37116 -0.421449
3.11572 -0.941097 -2.24282
-0.4551 0.249952 1.20298
-0.39915 -1.13174 -1.24719
-0.221431 -0.235623 0.329757
0.120021 -0.357298 -1.01385
0.987829 -0.72167 0.50398
-0.411292 -1.76513 -1.36265
0.562296 0.0823916 -0.230158
-1.72541 -1.57535 -2.83626
1.32179 -3.37743 -1.61099
-0.424667 -1.95816 0.405986
-0.571289 0.0522985 0.365655
0.37324 1.39254 0.750051
-0.256443 0.0271541 0.0162688
1.03031 0.476611 -0.729771
-0.853338 1.24682 0.581195
0.249163 -0.787105 -0.369182
0.0322795 -0.0521305 -0.465809
1.85267 -0.470451 -0.0489924
2.27435 0.830931 -0.949706
-0.756977 0.368296 0.620497
0.245398 -0.785064 -0.490488
-0.610775 -0.0488586 0.749306
-1.18499 1.11606 0.234014
0.724021 -0.328525 -0.628763
-1.41186 0.956325 0.190657
-0.530875 1.61766 -0.834531
-1.23537 -1.68243 0.747994
0.923936 0.00634973 -0.430869
-0.267737 -1.09987 2.30329
-2.09631 0.952766 0.0133229
-0.785436 1.34554 0.0012522
1.42479 -0.527895 -0.314415
-0.0800124 0.438386 -0.194813
-0.238709 0.910898 -2.34745
-1.36682 -0.0590394 -1.35149
1.81999 0.427229 -1.34895
0.382791 0.104888 -0.544541
-0.419068 2.64187 -0.792274
-0.650825 0.160602 0.904594
1.97872 1.53106 0.4162
-0.820283 0.359324 -2.74823
-0.0904294 -1.04678 0.182872
0.105983 0.130189 0.0627838
0.42384 0.192853 0.0660412
1.69554 0.374014 1.14946
0.843833 -1.28526 1.23265
0.0749441 -0.428018 1.48059
0.605643 0.116738 0.951288
-2.30216 0.454379 1.57597
-0.475202 0.548115 -0.287454
-2.52907 1.78257 -0.247672
-0.779499 0.756347 0.268585
1.87925 -0.134116 -1.36144
2.90037 -0.528637 1.41566
-0.735858 0.0247414 0.00151214
0.0034903 0.997201 0.190453
-1.749 0.363903 -0.465528
0.51143 2.85667 1.4788
2.75308 -4.09063 2.45755
-0.916731 -3.0636 1.91685
-0.858552 1.45882 3.07112
-1.66706 -1.50153 -1.01563
-0.211781 1.52143 0.0321334
0.011025 -0.73663 -0.177303
-0.298158 0.231556 0.0536597
-0.419898 -0.336229 -0.924942
-0.910607 -0.398215 -0.713911
-2.02729 0.241029 1.10036
0.55422 1.83956 -1.32915
1.36051 0.762827 -0.0929079
-1.00525 0.530183 0.552051
-0.196951 0.108502 -1.42753
-1.05261 -0.418466 -0.656199
-0.635042 -0.450718 -1.00452
-0.953991 3.39354 -1.14776
1.43548 2.77543 -1.0431
-1.48027 -0.225488 -0.445196
0.140071 0.0519395 -1.19797
0.682639 -0.0565255 0.0299348
-0.924843 -1.53893 1.83873
0.688301 -0.204016 0.490383
0.774705 1.0918 -1.38843
-0.958873 0.818747 -0.0718118
0.848708 -0.341829 0.803373
-1.04896 0.0405561 0.245062
3.74339 -0.549716 -0.408337
-0.278677 1.57443 0.704361
0.421703 0.195906 -0.914792
0.948285 -0.789807 -0.931128
0.497348 0.412914 -0.159494
-1.51517 -0.955102 -0.584984
-0.180268 2.23542 0.0433521
0.482449 0.867802 0.397582
-0.181447 0.738092 0.16353
0.0553806 0.00267707 -0.244435
1.24445 0.7184 1.23849
1.40728 2.65821 1.11747
-0.564297 -0.0495991 1.24543
-0.180253 1.33661 -0.0873964
1.12967 3.14892 -1.80265
0.752364 0.157323 -0.421483
-0.455088 -0.696037 0.377235
1.273 0.712966 -1.98735
-0.549104 1.51658 -2.52871
-0.786673 -0.60354 -0.434939
-0.518321 0.828671 -0.565385
-0.978365 -1.53316 0.657355
-0.27683 -1.24417 1.66948
0.592053 1.1624 -2.79311
-1.0629 -3.04026 0.21354
-0.837226 -1.89955 -1.9633
-0.499308 0.208139 -0.931157
2.99306 -1.2688 0.264967
0.302085 -1.40462 1.58966
1.80619 -0.292546 -0.159543
0.553899 -0.721225 -1.12421
-0.892045 1.2739 -0.553279
0.3163 0.751149 0.691092
-0.00897859 0.417386 -0.11275
-0.29644 -0.18367 0.623071
0.33205 0.803583 -0.782103
0.440616 0.15879 -0.427612
-1.65172 -0.464056 1.16832
-1.40254 1.5162 1.86961
-0.571408 -0.504889 0.131852
-0.377098 -1.06215 1.17347
-0.68473 -0.955806 0.254386
0.630332 0.432873 0.672514
1.34261 0.249836 -0.0599416
0.984763 -0.287737 -2.57925
0.0707688 1.66161 -1.20776
-1.53385 -0.858082 -2.12775
-0.611802 -2.01134 -1.09515
-1.13519 0.166455 -0.95505
-0.0842742 1.23965 -1.93154
-0.648057 -0.0623355 -1.51267
1.36242 -1.27424 0.0526363
-0.417904 0.805953 -0.529087
-0.632125 0.385221 -0.248094
0.969396 -0.85184 -0.734178
-0.241259 -0.751868 0.168709
2.47314 0.0166732 -1.88441
-0.0971145 -0.265599 0.848534
0.645317 0.705067 -0.448768
0.963275 0.690831 1.30135
-0.533358 0.0164758 -0.258003
0.189458 0.176143 -0.0752134
-0.56091 -1.73514 0.237747
0.813651 -1.25905 -1.3141
-0.517844 -0.8084 -1.5627
0.139074 0.170157 0.459285
-0.0184078 0.396881 -0.399603
-0.430869 -1.50683 1.70569
-1.91143 -0.408409 0.251796
-0.161439 -0.131885 -1.94733
0.61854 0.0522785 -0.120683
0.845972 -1.87192 -0.223917
0.426118 0.561977 -0.249503
-0.529561 -0.0520315 -0.706359
-0.293704 -0.232495 0.219795
-1.04693 -0.66556 1.4456
-0.71247 0.0630454 -1.39954
2.76811 0.535048 -0.460615
0.250709 -0.160802 0.0872988
-1.50334 2.44154 0.00551059
0.549633 -0.0258869 0.437952
0.204144 -0.444947 0.0869097
0.789192 -0.703841 -0.275511
1.33209 -0.771914 -0.0433683
-2.26798 2.71492 0.460785
2.1336 -0.742849 1.8145
-0.34408 0.0853226 -0.0710334
1.19972 -0.744485 -0.0707094
-0.7836 -0.357194 0.485384
-1.30572 0.820844 0.233747
-0.235275 0.516541 0.541948
0.679482 0.543887 0.933092
0.184516 -0.249018 -0.0284727
0.872919 1.02315 0.673432
0.328894 -0.675141 -0.332673
-1.71035 1.70404 1.05906
-4.03606 -0.0295439 0.552785
-0.522947 2.62151 -0.730675
0.250484 -0.464887 -0.286631
0.117596 -0.269068 -0.268914
0.675896 2.37935 1.06258
0.447217 -0.735791 -0.251449
1.13823 -0.644229 2.56996
0.133043 0.659681 -1.51666
0.00894152 -0.343734 -0.0696654
-0.585914 0.184906 -0.350472
-2.10821 -1.13703 0.878209
0.489646 -0.325232 2.01376
-0.38362 0.179673 0.717718
0.934535 -3.51018 0.727513
-0.841132 0.512349 -0.0255498
0.228217 -0.229116 -0.442821
0.0938352 -0.115347 0.0054083
-1.15916 0.310913 -0.203305
-0.279834 -1.45635 0.899394
1.02466 -0.264746 -1.49642
2.5584 0.963516 -1.28803
-0.156577 0.280696 0.95344
0.671513 0.0761617 0.89128
0.330254 0.139925 0.0239825
-0.53776 -1.1205 -0.213626
-0.534361 -2.10195 1.41306
0.143519 -0.402245 -0.173079
-0.49708 1.00433 1.54547
-0.182756 1.64245 2.07206
-0.09615 3.41335 -2.46102
-2.63467 2.52654 -0.0595812
-0.538203 0.656184 -0.908268
0.973579 -0.157741 0.21807
-0.26219 -1.30001 -0.897552
0.564444 -0.551041 0.283115
-0.0575656 0.517883 -1.16599
-0.288302 -1.32948 1.68275
1.58444 1.1786 -0.11476
0.635754 -0.546663 2.19057
0.267609 -0.870058 -1.46829
0.761342 -0.553932 0.996491
-0.582653 -0.214489 -0.169359
0.0848585 0.105908 -1.1648
0.0765522 1.31456 0.591768
-0.0228304 2.77888 -2.54154
3.27248 -0.0403782 0.513181
0.804488 1.83373 -0.247412
-0.939491 0.652311 -0.399091
-0.0780678 0.119654 0.564876
-0.339245 0.0543684 -0.417309
-0.794589 0.142449 -0.403151
0.770144 1.2232 -0.0851834
-1.36951 1.22405 2.58458
0.401106 0.576898 2.58678
0.574378 0.247916 0.116551
-0.146184 1.20802 -0.499941
0.378139 0.571002 -0.324131
0.137976 -0.499351 -0.364264
-0.248877 -0.294731 -0.250655
0.0778054 -0.341943 -0.383224
-1.17234 -0.54862 -1.12051
-0.290693 0.0562005 -0.156408
-0.159572 -1.13416 -1.17925
1.16636 -0.408146 -1.93805
0.173007 -0.0337153 0.816394
-1.22613 0.449159 1.81424
0.662612 0.490336 -0.569924
0.801533 -0.195792 0.194138
0.295962 0.512426 1.60056
0.0799367 -0.624287 0.700887
-1.20956 -1.33593 2.48563
0.0845193 -0.179223 2.88365
0.0987258 -0.138897 -0.523802
-0.186773 -1.39006 0.384235
-0.380405 -0.549571 -0.0817281
-0.158667 0.187268 -0.0586525
-0.0464632 0.356945 -1.08881
-0.475311 0.131819 -0.165966
-0.584949 2.12333 -0.507346
1.40565 0.34418 0.427529
0.919797 0.635984 0.294559
-0.336037 -0.396933 0.94348
-2.05503 -0.378945 -1.88298
-3.30024 1.36895 -0.627003
-0.656824 1.09981 -0.567056
0.781792 -0.401199 -1.728
-0.234196 -0.379538 0.848566
2.15078 -1.03383 1.2055
0.240043 0.54584 -0.521632
0.474236 2.92371 -0.269485
-0.199678 -0.79873 0.251298
0.490438 -0.846334 0.252505
0.217148 -0.842138 -0.705731
-1.39203 0.746053 -0.0261322
-1.1229 -0.333296 -1.06441
-0.010409 0.150766 0.571423
-1.74152 -0.341311 4.03823
-0.144111 1.47587 -0.249665
-1.05132 -0.188357 -0.605286
-0.742309 0.674601 -1.85791
-1.92595 1.31752 -0.687963
1.97653 -1.12631 0.711611
-0.027426 0.101833 -0.0886061
0.935255 -2.1343 1.25014
-1.53868 0.97382 1.28299
1.64871 1.05975 -1.4355
0.179492 0.19508 2.10748
1.00209 -0.233271 0.497796
-0.120616 -0.448683 -0.325002
-1.45839 -0.584511 0.586696
2.5999 0.784769 -0.522402
0.017048 -0.61785 -0.127523
1.58132 -0.613567 1.14324
-0.0879247 -0.90244 0.40698
-0.699195 -1.50031 0.938455
0.0667572 -1.46964 -0.592134
-0.75561 0.579983 -0.121655
0.368299 0.990088 0.198251
-0.446762 0.0940842 -0.378167
0.591891 -1.09356 -0.49484
0.275071 -1.09258 1.81569
-0.792668 2.93745 -0.584851
1.61055 -1.07357 -0.378715
0.711809 -0.859751 0.179997
0.0336124 0.172766 1.12131
-0.439398 -0.929926 1.31134
0.137654 -0.311932 -1.06718
0.679281 0.0631547 0.717237
1.33054 1.41679 1.24756
3.06546 2.08356 1.93102
1.14178 -0.35137 0.277333
1.13282 -0.765109 0.124923
0.177616 1.70119 0.183212
0.296339 -1.34982 0.313451
-0.0070459 0.180243 -0.268493
-0.119709 -0.142044 -0.258608
0.540441 -0.316442 -0.365138
0.550762 -0.246979 -1.61675
0.646853 -0.59021 -0.084638
0.101071 0.907965 0.39399
0.122991 -0.248793 0.242322
1.07474 0.672923 -0.524603
0.0551605 1.35539 3.68542
3.03661 0.461307 1.05749
0.566517 -0.198878 3.06493
0.806918 -0.90441 1.88841
2.09909 1.47819 1.23337
0.433244 -0.313516 0.00698433
-1.2867 0.729019 0.434568
-0.895194 -1.27269 -1.16524
0.0835076 -0.717551 -0.291494
0.184434 0.559233 0.213455
0.479728 0.406125 -0.318876
-0.201558 -0.192655 0.130361
-0.230858 0.208068 1.56671
-0.305644 -0.667511 -0.187497
-0.730825 -0.121015 -0.0194045
0.0976179 0.402732 0.167929
-1.08403 -1.31229 1.10331
0.130615 -1.7335 0.588907
-0.861584 0.391559 0.13329
1.61702 -0.484655 -0.0753583
-0.873298 1.98704 1.37003
-0.766861 -0.376582 -0.585716
-0.317259 -2.1806 0.373164
1.7024 -1.58051 1.434
-0.69238 0.487576 -0.875399
-0.3071 0.929228 0.895253
0.0488604 -0.310997 -0.418435
0.128115 -0.125128 -0.03942
1.43434 -0.137595 0.726304
1.02889 1.90786 -1.67229
-0.808677 0.898816 0.662459
0.276848 1.18499 0.315656
0.144882 -1.7438 -1.01147
1.33466 -0.197587 0.085152
-0.496551 0.442704 -0.438847
-0.152869 0.0184079 0.481535
0.0797982 -0.1546 -0.142921
0.732921 0.0831575 0.147687
1.40994 -1.09085 -0.0602052
1.22972 0.432982 1.77213
1.79102 -0.496986 -1.12264
-1.09003 0.423191 -0.432011
-0.672758 0.63933 0.0172561
0.110818 1.40183 1.01166
1.72989 2.16706 1.93014
-0.580197 0.847491 4.75099
-1.35326 1.03257 0.873589
-0.100017 -0.555315 -0.685685
0.215737 -0.801425 1.58063
1.31435 -0.206385 0.0621724
-2.3936 -0.116409 -0.687449
-0.375744 -0.818511 0.1635
-0.466519 0.133837 -0.738895
0.407031 0.988726 0.720212
0.896187 -0.530409 -0.331804
0.00205783 -0.0208416 -0.258772
-0.0127551 0.108897 0.879879
-0.621519 -1.50836 -0.493291
-0.0315641 0.595498 0.537211
-0.504684 1.00888 -0.40768
-0.210451 -1.60744 0.563742
0.612381 -0.690491 -0.164506
-1.82694 -0.39249 -0.976772
0.0206016 0.617524 0.558756
0.121774 0.166877 0.873663
-0.600797 -0.684951 -0.206429
-0.533721 -0.980074 0.253148
-0.996432 -0.894868 -0.439885
-1.1061 0.422514 -2.06822
0.303482 0.0556341 0.152074
0.54828 -1.70788 1.36316
0.260405 -0.927602 0.265439
0.665811 -1.64532 0.653145
0.836663 -1.37733 -0.138551
0.16376 -0.442919 0.428424
-0.494464 1.90935 0.471518
0.0106245 0.314346 -0.626297
0.0401549 -0.191019 0.448073
0.198782 0.171614 0.994652
0.619927 0.564336 -0.108573
-0.156076 1.08392 1.79138
-0.66475 -1.0013 1.85462
0.776263 -0.16508 -0.218615
-0.317815 -1.10906 1.20389
-1.17653 -2.00915 -0.408175
0.933892 0.183948 1.44255
-0.54021 -0.0849149 0.130741
-0.444073 -0.077989 -0.131043
0.0735633 0.173541 -0.29492
0.686486 -0.078779 0.0660193
-0.301935 1.06844 -0.351161
0.293929 0.698397 0.310282
0.522206 -0.0904362 1.41045
0.348929 -0.251077 0.80256
0.485618 -1.16506 0.194139
0.0519904 0.160923 -0.720158
-0.766593 -0.218852 0.398623
-0.83417 -1.26948 0.872348
-0.803013 -0.425808 1.2327
1.359 0.679405 0.39933
-1.57868 0.798266 -0.996845
-0.0340368 -0.165405 -0.425969
-0.790654 -1.07954 0.0796772
-2.21862 -1.22333 -2.12862
-0.640659 2.23121 0.287843
-0.360527 0.2019 0.596831
1.83208 -1.739 -1.82545
0.620163 0.53775 -0.62401
0.627281 0.0507644 -0.47054
0.063174 -1.61131 -0.498568
0.307321 -0.424179 0.168454
0.511752 -0.990699 0.73536
0.14761 0.577089 0.765598
-0.122712 1.59778 -0.0539059
-0.303883 0.721181 -0.22477
1.14731 -0.605497 -1.98187
-0.0508798 -0.187201 -0.326187
-0.253778 -0.343295 -0.134843
0.18203 0.229454 0.279492
3.07512 3.35266 0.233205
0.320823 1.04324 -0.310419
0.310726 0.0443621 -0.211523
-0.635144 -0.11252 0.760805
-1.50103 0.157306 1.24571
0.545583 -0.531626 -0.637489
-0.120287 1.37733 -1.08749
0.172544 0.245753 0.849491
-0.5931 -0.672172 0.623199
1.68921 -0.946227 -0.338833
-1.7673 0.215663 -0.574287
0.653876 -1.09397 -0.441536
-0.0430337 0.170424 0.623002
0.121095 1.2531 -0.743769
-0.0930374 -0.648526 -0.063762
-0.587984 -1.43458 0.52629
-0.736239 0.56962 1.63765
-1.84063 2.17427 0.510897
-0.970729 -0.111004 -0.85931
-0.227165 0.914619 0.33482
-1.36638 1.20414 1.19621
-0.67484 -0.332753 -0.686902
3.018 -0.639802 0.66495
0.607325 1.23639 -2.00965
1.60986 -0.422586 -0.76678
-0.446017 -0.322393 0.855463
0.644445 -0.120364 -0.526867
0.480349 -1.10457 -2.66452
-2.03254 0.129089 -0.956137
0.10938 -0.353454 -0.839227
-0.38994 0.392786 -0.99695
0.032822 -0.831105 -0.556099
-0.547951 0.0149364 0.336602
0.140241 1.08666 0.414541
-1.76565 2.6728 -0.918807
0.472199 2.4333 -2.54248
-0.595152 2.29154 -1.12978
-0.977285 0.615089 -0.808986
-1.21642 0.723828 -3.44791
-0.224215 2.37108 0.315657
0.533559 0.832138 0.389158
-0.269416 0.204426 -0.455243
-0.993041 0.344912 -1.04211
0.540515 -1.44229 -0.343637
2.82414 -2.07514 2.04831
-0.678608 -0.736743 -0.784184
1.47096 1.27751 -1.36628
0.748815 -0.661862 -0.921184
-0.134352 0.375551 -2.54881
-0.592506 0.437269 -0.667923
-0.347929 -0.538909 0.815433
-0.0833595 -0.538365 -0.00744952
0.0503798 -0.436277 1.03446
0.192057 -0.630082 0.702085
-0.623489 0.438266 -0.0224684
-1.50642 0.448817 0.214902
-1.19644 1.14396 -0.981594
-0.453435 -1.12278 0.109947
-1.70335 0.931784 0.222165
-0.419091 -0.0419445 0.133582
0.43038 -0.820403 -0.742547
-0.219766 1.08757 0.729723
-3.79 -1.18811 2.50585
-1.52172 1.12868 0.319329
-1.56755 1.2798 0.54124
-0.649461 0.829182 -1.01673
0.33749 0.276768 0.945567
0.470713 0.579238 -0.640008
-0.00195386 1.16263 3.55606
0.226064 0.428939 -0.515234
-0.321784 0.656868 -0.749439
0.333978 -0.452233 0.213753
0.808815 -0.50118 1.11643
-3.35799 0.646221 -0.168116
-1.36947 0.675777 -0.334652
-1.60562 -0.0174484 -1.36972
-0.088824 -0.259443 -1.84036
-0.603426 -0.0366727 0.710033
-0.873873 -0.677684 -2.03159
-0.4005 -0.0651257 -0.0606142
1.06969 -0.257451 -0.703109
-0.264242 -0.160972 0.692594
0.00347452 0.667886 0.21189
-0.374327 -0.0950506 0.643826
0.0623116 -0.512477 -1.20844
1.08416 -0.0298243 -0.81023
1.39182 0.579421 1.53241
1.31815 0.0339956 0.652727
-0.340531 0.499279 1.43784
1.07113 -0.0694596 1.55863
0.761746 0.269459 -0.186826
0.206942 0.385342 0.347742
-0.428122 -0.450163 -0.110016
-0.594167 2.37787 -2.45673
-2.0357 0.488121 -1.57422
-1.57831 -0.5852 -0.72069
-0.327103 -0.20752 0.389115
1.37295 -0.571269 -0.429089
0.715529 0.309429 -1.25457
0.207687 1.46674 -0.706119
2.36428 2.76919 2.17482
0.209633 0.118187 -0.0734378
0.0785058 0.297802 -0.208906
2.00497 0.372735 0.347516
1.27077 -1.77468 -1.02396
0.211704 0.158102 0.00612474
-0.277473 -0.733099 -0.448904
0.250774 1.43513 -0.374322
-0.0696263 1.82522 0.651549
0.239031 -1.32909 0.239705
-1.11466 -0.886321 2.14834
-0.839571 0.38276 -0.31044
-0.634612 -0.301259 0.292225
-0.876756 0.273103 0.433576
0.479783 0.60787 0.202122
0.103099 0.00253923 -0.280082
0.287572 0.0377544 0.0139439
0.55755 1.02674 1.17814
-0.786948 0.326959 2.56374
0.451939 0.939686 -1.04077
-0.470234 -0.264883 -0.00479987
-0.383952 0.383968 0.209454
0.885507 0.143708 -0.565645
-0.00198834 -0.750188 -0.343013
1.41817 0.669001 0.748738
-1.16 2.44066 0.998979
0.0847822 1.19035 0.884169
-0.715515 -0.417637 2.576
-0.68783 0.2868 -0.465487
2.31955 1.13283 1.09494
-0.739855 0.314976 -0.252068
-1.58615 0.0305101 0.476923
-1.02139 -0.591759 -0.408066
-0.101759 0.325668 0.314814
-0.698151 0.104129 -1.35106
-1.24436 -1.70967 0.0922744
-3.51526 -1.074 0.332124
0.229139 -0.229108 -0.212687
0.0784379 -0.130476 0.414713
-0.1172 0.03936 0.186591
0.471369 2.26526 1.09868
0.430386 -1.88783 1.27003
-0.320304 0.179824 0.602405
0.126063 -0.175571 0.481817
0.726786 -0.569836 -0.042561
-0.796653 0.443697 0.816521
-0.864096 0.0204173 0.797124
1.08219 -0.907199 -0.199361
-0.688492 1.46834 2.67507
0.950338 -0.768485 0.331538
-0.655462 0.357739 0.257028
0.265342 -0.061865 -0.100757
-0.295178 -0.484714 -0.111357
-0.324769 0.772412 0.0874133
0.622473 0.256739 0.239188
-0.708174 1.21416 -0.506839
0.128446 2.61582 1.0213
-2.56323 0.988091 0.717755
0.322436 0.176537 -0.530065
1.00549 1.10574 -0.138227
1.07271 -0.401817 -1.70837
0.426582 -1.76048 0.390234
-0.253846 0.407642 -0.923543
0.621499 0.963998 -0.488462
-0.647298 -0.164695 0.655758
-0.174049 -0.557901 -1.37177
-1.09101 -0.557888 1.34897
0.396773 2.28383 1.51735
-2.21592 1.12699 0.831044
-0.802086 -0.0346138 0.77798
0.236771 0.661559 -2.26084
-0.229862 0.599588 0.576344
-1.23105 0.837839 1.73385
-0.37006 -0.350241 -1.20792
0.383014 0.0587594 2.11347
-1.90269 -0.278942 1.51454
-1.9188 0.810386 1.52772
0.683921 -0.444745 1.79584
0.0768521 -0.118809 0.124644
-1.59496 -0.210295 -1.68155
-0.370896 -1.5498 -0.195661
-0.119311 0.379454 0.207521
-0.759671 0.520485 -0.409509
-0.0370988 -0.613397 -0.782905
-0.185746 0.548019 -0.220247
-0.822086 -0.267321 -0.832866
-0.0266169 -0.529629 -0.629192
1.01554 -2.56466 0.939072
2.35033 -0.231664 2.46649
0.213842 -0.932847 1.32151
-0.488673 0.398886 -0.228573
1.15727 0.744881 -1.32943
-0.787929 0.551333 -0.366868
0.596376 -0.0276209 0.13336
-0.239407 -0.00888541 1.65595
-0.0831406 0.331197 0.183973
-1.39945 -0.764053 -1.6634
0.900575 -0.599534 -0.0727828
0.299539 0.134811 -0.0338654
-0.702092 0.203486 0.467961
0.8319 -0.34271 -0.0228008
-0.121725 0.0822369 0.888193
0.141694 -1.77585 0.26003
0.680552 0.932309 -0.0648857
0.00109636 0.527077 -1.09569
2.70747 0.918252 -2.37037
1.57436 -0.210587 -0.136705
-0.201665 -0.130684 2.01171
-1.75839 -0.265427 -1.57854
-2.3138 1.65188 -0.192385
-1.4632 -0.0845204 -0.204698
-0.274472 -0.0273995 0.40276
-0.792881 -0.113262 -0.35524
-0.10917 -0.574484 -0.0414885
0.522876 0.450541 -1.3407
-0.546347 -0.169804 -0.151438
-0.770274 0.644162 0.239537
-0.00482642 -1.58888 0.00923689
-0.00417875 0.131917 -1.15227
-1.25507 0.731509 -0.829347
0.176728 -0.625866 0.752071
-0.354482 -0.275492 0.620944
-0.452201 0.26334 -0.618388
-1.27401 -0.54623 -1.06401
-0.4175 -1.24951 1.4073
-2.64526 0.532537 -0.48462
-2.63524 1.71297 0.417856
1.67261 0.130591 0.670323
1.02296 -0.802405 0.479695
-2.83423 2.3378 -1.13817
-1.18077 -0.228493 0.480334
0.268552 0.381851 0.946528
0.287155 -1.1238 -0.743388
0.660839 0.250872 -0.313104
1.424 -1.1236 -2.54829
-1.32008 -0.450445 -1.36845
-0.663174 0.800963 -0.248682
-0.758657 0.0459525 -0.247097
-0.463194 0.11093 0.0471396
-0.238261 0.464397 -0.306942
0.133417 -0.279434 -0.231949
-0.24575 -0.64864 -0.140063
-1.21559 -0.747314 1.64363
-0.454517 -0.160538 -0.286103
0.350163 0.521494 -0.180728
0.124609 0.256875 -0.0914018
0.634406 -1.21669 -0.961737
1.50064 -0.233468 0.754869
0.262913 0.641919 0.295899
0.0436451 -0.279531 -0.524742
-0.222305 -0.3934 0.50519
1.72056 -0.149607 1.07736
-1.35593 1.00106 -0.876241
-0.468893 -1.72235 0.274105
-0.368761 -1.25966 0.800678
0.953389 1.10226 0.0992229
1.35304 -0.0139917 -0.353856
-0.0331927 0.542178 -0.224248
1.08019 0.227312 0.116149
0.966171 0.430746 0.919244
0.239513 -0.0449297 0.28996
-0.456477 0.392864 0.279458
0.210565 0.74575 -0.106152
-3.70411 0.811001 -0.207147
-1.96909 2.40906 1.2777
-0.477173 -0.367968 1.31494
-0.473615 0.89374 0.00489151
0.357955 0.322858 0.37522
1.55596 0.424372 -0.369678
-0.386682 -0.398539 1.24545
0.243245 -0.97075 0.737238
0.385074 1.09531 -0.804456
-0.933383 -0.822809 0.998926
-0.250769 -0.749391 -0.600521
-0.23125 0.481694 -0.765483
-0.0345871 0.454885 -0.615312
0.409815 0.729504 0.572587
-0.612605 0.163896 -0.408699
-2.02119 0.0398671 0.552876
-2.22569 1.04546 -1.48057
-2.68454 2.36455 -0.474895
0.545818 4.06635 1.84677
-0.666248 3.08572 1.24318
-1.36143 1.21086 -1.27488
0.0561993 0.584991 0.0864373
1.24058 -1.27345 0.106402
1.29033 0.694707 -0.643845
0.891582 -1.94183 0.559746
1.49389 1.05787 -0.55435
0.707295 -0.855369 0.581498
-1.21584 -0.704964 0.0868974
1.8592 -0.725472 -1.72238
0.950935 -0.887984 0.0713989
-0.0398811 0.956976 -0.0525002
1.05227 -0.562297 0.178751
0.280026 -0.396589 1.44473
-1.50734 -1.13387 0.534604
0.556931 0.399001 0.735206
-0.601253 0.666956 -1.13564
-0.194261 -1.24256 -0.337223
-0.75251 -0.0694462 0.817257
0.435687 -0.120483 -0.922622
-1.81507 1.43193 -0.0346921
-1.19653 1.06653 -1.02855
0.322825 1.0057 0.22752
0.683925 1.12627 2.94825
-0.00694473 -1.36397 0.0188621
-2.28549 0.121026 -2.63888
-0.28873 0.915336 -1.04434
-0.420754 -0.75236 -0.197577
-0.305317 -3.17293 1.63875
-0.316064 -2.39699 -1.98657
-0.607303 -1.69771 -0.354651
-0.60847 0.248223 -0.031128
-0.0513123 0.611654 -0.0474723
1.83031 1.26524 1.28094
-0.0926003 1.51456 3.03484
0.427262 -0.39109 -0.75517
-0.00904173 0.111338 0.443634
-1.22153 1.58962 -1.61672
1.49504 -0.350696 -0.470184
-0.859884 -0.787131 -1.72259
-0.886114 -1.51688 0.49759
0.20409 -0.714545 0.811609
0.256217 0.133903 1.13098
0.0432288 -2.62666 -1.01522
1.45326 -4.11567 -2.1068
0.697924 -0.586353 -1.58915
1.16097 0.285022 0.924062
0.982695 0.198863 1.11037
-1.1201 -0.8527 0.0480198
-2.02927 1.4304 -0.315344
1.04906 -1.42675 0.979797
0.839722 0.0447279 0.564465
-1.36757 -0.444814 -0.329744
-0.0643491 0.558849 0.194605
-0.487794 0.448785 -1.32378
-0.967638 1.02081 -0.336222
-0.546711 0.693044 0.755132
1.10167 0.320563 -0.556896
-0.148066 0.688908 0.153159
-0.921322 -0.151737 0.143533
-0.350819 0.4547 1.07112
0.884111 -1.01514 0.305176
-0.197919 0.0154343 1.78983
-0.115274 0.843964 0.184153
1.05091 1.09717 -0.138224
-0.101835 0.0650526 -0.474773
-0.0832975 0.266243 -0.145489
0.106789 0.186023 0.411057
0.976274 0.0405255 -0.686912
-0.626914 -1.60541 -0.251286
-1.16832 -0.0850809 -0.478769
-0.869338 -0.0793871 1.07475
0.85203 -3.00432 -1.323
-0.637599 -0.2983 -0.93257
-0.785732 1.58211 0.553956
0.180622 -0.338326 0.0497749
-0.186556 0.0652792 -1.51077
0.000986895 1.10472 1.22197
-0.83829 0.368286 -0.926049
2.25452 -0.0772442 1.23168
-0.564164 0.714421 -0.615663
-0.993358 -0.481916 1.61983
-1.55257 1.46347 -0.813347
-0.256219 -0.163357 -0.0175762
-1.77529 -1.03772 -0.854736
-0.595869 -0.0215965 0.449727
-1.39615 0.0784743 0.198085
-0.148186 0.166672 -0.525186
-1.33499 -0.410154 0.0711478
0.707642 -1.49028 -1.50759
0.786373 -0.234215 -0.00310553
-0.947958 -0.551361 -0.942636
0.931622 -0.96456 0.479402
0.760675 2.09592 1.1686
0.0875495 0.000988449 -0.589507
-1.72258 -1.91917 -0.117184
-0.00782136 -2.47203 3.75987
-0.61399 -0.656392 1.30654
-0.0431334 -2.56432 1.51281
-0.129699 -1.02146 0.435253
0.691683 1.00281 1.89598
0.50577 -0.709019 0.711245
1.19921 -0.541084 -1.95042
0.126749 -1.33513 -1.54379
0.797562 0.622941 0.749118
-1.743 -0.426566 -0.0809976
-0.810096 -0.132689 -0.0397145
-3.93817 0.677744 0.0984237
-0.00508209 0.34 0.918851
0.582606 -0.0609386 -0.183116
0.323673 -0.32617 0.0547547
1.2274 -0.190395 0.92431
0.758382 0.17866 -0.673849
-0.230508 0.210685 0.067733
-0.0943247 0.562345 0.693007
-0.612256 -0.818578 -0.198486
0.4155 -0.160482 0.426835
-0.998604 -2.298 -0.615215
0.420476 -0.113186 0.597311
0.0662185 0.541471 0.436804
1.11227 -1.69219 -0.286337
0.112896 -0.300237 -0.22608
1.33181 0.134663 0.549462
0.346795 0.567123 -1.23832
-0.184687 -0.538011 0.308735
-0.608487 0.432054 -0.218297
0.374348 1.89772 0.404234
-1.029 -1.87893 -0.838464
2.7944 2.61417 -0.789736
0.641203 0.34276 -0.0611211
0.618458 0.311478 -0.0534709
0.544911 -2.0795 0.86132
1.09143 0.0913966 1.51278
-0.726466 1.09045 0.0366696
1.38643 1.27453 0.323959
-0.260214 -1.04711 -0.222366
-0.240703 0.220095 0.508018
0.391079 -0.976822 0.612075
-0.456075 0.713276 -0.815711
-0.100355 0.967863 1.48334
0.497174 0.684328 -1.32133
1.81506 -0.0715182 0.28258
0.289154 -1.61425 -0.207656
0.240632 0.16989 -0.365879
1.17184 0.855886 1.28606
-0.0116966 0.672373 0.195478
0.985582 0.506998 -0.101092
-1.25461 0.651281 0.914578
-0.134261 1.33913 0.517275
0.239018 0.191507 -0.210014
-0.525514 -0.365469 -1.14375
0.391754 -0.286233 0.766675
-1.51539 -0.52042 1.0063
-0.266368 -0.411511 0.556615
-0.965612 -0.251268 0.127249
-1.04664 0.404655 -1.09964
0.251207 -0.3327 -0.137982
0.478574 -1.2064 0.0678443
-0.129331 -0.307603 0.147352
-0.658638 0.382269 0.360862
0.498135 -0.346641 0.780622
0.562001 -0.666218 0.29117
-1.9191 0.886262 0.782781
1.17197 0.146488 0.158359
-1.1216 -0.783255 -0.143728
-0.548767 0.975547 -0.460968
0.00712434 0.931407 0.55323
0.185068 0.709577 -0.0167354
-0.865096 -0.0794677 -0.01973
-0.0726802 0.293246 0.508049
-0.833427 0.567995 -0.504999
-1.02155 -2.63483 1.23046
-1.01525 -0.988792 -0.520602
0.388708 0.263751 0.200675
-0.765695 0.696453 1.76908
-0.692765 -1.5076 -0.979595
0.34243 -0.295434 0.263512
0.32028 -1.75577 1.49709
-2.72729 0.434437 1.25838
-0.341543 0.1177 -0.437025
-0.477143 -0.194174 0.306606
-0.112739 0.274924 0.320485
-0.0792931 -0.508361 -0.057531
1.6981 -0.163546 -1.20333
0.193858 1.25838 0.356841
-0.576669 0.84367 -1.27563
-2.09544 1.135 1.65574
-0.485413 0.273821 -0.814271
-0.441176 -0.124351 0.20262
1.10302 1.68448 -0.87017
-0.101665 -0.0760354 0.0118549
-1.16654 -0.380123 1.5794
-0.711743 -2.04789 0.741387
0.464008 0.717342 0.238282
2.04897 0.281221 -1.00071
0.297353 -0.857491 -0.236944
0.440139 -0.786195 0.690167
0.347533 1.15958 0.458718
-0.198589 1.46238 -0.668702
0.897571 0.521448 -0.420828
-0.204858 0.00620556 0.161368
-0.721233 -0.404753 -0.452558
1.00981 -1.29768 0.292963
1.96157 0.921012 0.28009
0.00980623 -0.346219 -0.378263
-1.03143 -0.0606143 -2.8475
1.90709 -0.265449 -1.25928
1.74206 0.113118 2.11579
0.84695 -0.353734 1.59558
0.610983 -2.35374 1.69171
1.09599 -0.517168 -0.619844
0.12096 -0.0157918 -0.43972
0.471888 -0.102617 -0.629706
-0.0430356 0.105516 0.777442
-0.874186 1.88117 0.636567
-2.14114 1.55219 -0.578359
-0.512792 -0.191532 0.389198
-0.584233 -1.25792 0.0612915
0.941511 -0.999672 -1.07808
-0.411085 -1.07098 0.714377
-1.78187 -1.09319 0.674052
0.89904 0.322729 1.41244
0.700759 -0.0757307 -0.435337
0.0964912 0.884102 -1.3774
1.33245 0.149423 -0.638176
-0.680102 0.374439 1.07192
0.330202 2.7886 -0.710482
4.07402 -0.34081 -1.45522
1.0257 1.26643 -0.188351
0.652241 1.0344 -2.91023
-0.251997 -1.34228 0.971922
0.162981 -0.455714 0.0573165
1.03756 0.29997 0.29077
-0.322484 0.459953 -0.478071
-0.547088 1.19723 -0.367461
-0.867268 2.23741 -0.504005
-2.53481 1.6628 -0.765487
-0.895701 1.37596 -0.0562046
0.323936 0.771502 0.664002
-1.55925 1.4895 -0.814286
0.285403 -0.580789 1.34642
1.34278 -0.228788 -0.400568
0.985309 0.837247 -0.474425
-0.279237 1.2161 0.697418
0.781977 -0.915151 -0.494496
-0.7025 -1.37468 0.572285
1.42971 -1.06061 -0.604111
2.0238 -1.54275 0.918629
-0.0626581 1.4619 0.658994
0.449077 0.0794308 -0.868413
0.146955 -1.10292 1.48642
0.131395 -1.05389 1.72454
-0.880394 -0.30569 -0.467364
0.139586 -0.107889 -0.423077
-0.977357 -0.300027 1.30722
1.29341 -0.227262 -0.381675
0.978279 0.457873 0.884823
0.444461 -0.44417 -1.45434
0.377404 -1.91108 -0.418846
-1.22447 -1.29979 -0.580921
-0.322174 -0.359267 -0.873442
-2.29076 0.793612 -0.203405
2.61914 -3.52174 -0.502428
-0.159634 1.07924 -0.216662
-0.0272536 2.00198 1.83207
0.504222 -0.213819 -0.0338348
1.44915 -0.640431 -0.099687
-2.29197 1.07693 -0.420263
0.162212 -0.0771712 0.90329
-0.126025 -0.237858 0.999168
-0.132727 -1.15697 0.833857
-0.0180796 0.60652 -0.909809
0.217711 -1.07657 1.38455
0.000347851 0.279624 -0.846118
-0.213377 0.390846 0.480835
-0.459122 -0.725 -0.648163
0.896558 -0.225606 0.00589794
2.00082 -0.0559483 0.451823
-1.7928 0.366019 -1.80275
0.990311 -0.692032 -0.392247
2.78716 -1.9702 -0.820353
-0.158147 0.293789 -1.54402
0.192157 -0.425426 0.276647
1.13027 -0.874655 -0.762224
-0.465988 0.389047 -0.40575
1.78009 1.94636 -1.18741
-0.509356 -1.87007 -2.48624
-0.382294 1.53396 -0.924718
-0.341238 0.827443 0.112461
0.397317 -0.0788601 0.324913
0.630862 0.267548 -1.23505
0.0802244 -1.40924 -1.08
-0.290441 -0.164653 -0.956504
0.240546 -0.540681 -0.683191
0.830019 0.506045 0.143246
-0.224817 -0.212104 0.407139
-0.0715407 0.933871 0.83634
0.676994 -0.196047 -0.522393
-0.297913 -0.0305981 0.561726
0.683913 0.584621 1.86805
-0.276622 1.12251 0.908876
0.0741138 0.0928453 -0.326687
-0.774298 -0.873126 -0.391163
-0.319146 -0.522964 0.600795
0.641539 1.0471 -0.300393
0.91273 0.0376952 -0.403375
-0.6487 -0.0547036 1.20045
-1.79328 0.644239 0.20375
0.224906 0.499626 0.373124
0.108239 0.0307679 -1.35435
