-2.09172 5.29829 -4.19386
-1.02388 3.35916 -4.20025
-2.8954 -0.418883 -4.53236
2.60628 -0.981512 -1.57606
0.887278 -1.16792 -4.10053
1.43922 -1.1292 -2.2001
0.987896 3.53505 -2.9594
-1.03401 1.67412 -6.64314
0.142958 1.00069 -6.34919
-2.12177 0.849656 -5.35193
-1.67271 3.70349 -4.20753
-1.78924 -0.0132971 -2.34801
-0.63876 -1.07363 -4.49352
0.297975 -0.529866 -2.40497
1.89263 -1.99893 -0.96396
-0.62074 -2.27781 -3.35636
0.916858 1.60743 -1.12104
-0.0696939 1.14759 -2.3284
-0.235053 -0.844019 -1.21993
0.307044 -0.185617 -3.13929
1.53289 0.829907 -2.35136
-3.94746 -3.89158 -2.11124
2.68937 -1.92441 -3.4877
2.8004 -0.419582 -4.4479
6.15924 0.466874 -3.75313
2.19149 1.73721 -5.13012
1.61248 -0.170485 -3.40464
0.419345 0.231523 -4.17307
2.67642 2.90676 -3.33911
-2.62229 1.65727 -3.40523
-3.31046 5.22801 -4.99783
-7.83564 3.66626 -5.30915
-7.8669 3.02494 -2.40939
-5.13464 3.36755 -8.94193
-6.52932 4.10678 -1.86352
-5.11004 1.01661 -1.57173
-4.07898 -3.32798 -3.3855
-3.38739 -2.43718 -4.34054
0.936887 0.978251 -0.964384
3.35827 -0.988543 -5.55444
3.71257 0.760061 -4.0716
-2.56693 2.16885 -3.18928
1.11717 -2.33243 -1.98219
-0.389303 0.513314 -2.39865
3.90684 -1.90245 -2.59187
-0.292225 -1.71579 -5.47937
-1.63375 -0.733697 -6.06029
-0.647748 0.968657 -4.07474
-0.553887 1.57345 -2.59552
-0.207394 -0.593388 -1.97396
1.37271 -0.764066 -1.77696
2.22036 0.420567 -1.82703
0.460343 0.257774 -2.10013
0.642582 -0.338167 -2.29639
-0.31468 -1.41836 -2.45762
-0.494271 -0.33405 -1.56174
-0.235277 0.422954 -1.38405
1.48383 2.14296 -3.3659
2.87673 3.66018 -4.35705
-1.19074 3.32176 -2.45618
-0.983035 -1.35822 2.79513
-2.42873 1.10858 5.28357
1.26496 -1.2384 3.71209
0.0675471 0.638052 2.58434
-1.52028 -3.70419 2.39591
0.956734 -3.9281 2.80004
-0.106532 -5.06985 5.89536
-1.63421 -0.0837461 5.93772
-2.12278 -0.574054 4.61681
-0.272705 1.61517 3.5272
-1.49292 -2.63685 3.43689
1.13267 -0.695567 1.62099
0.0625246 0.887989 1.57476
-0.89375 1.86278 3.84926
-1.30337 0.391197 1.54194
-0.486726 1.68684 3.37951
-1.98492 -0.673522 2.21386
0.252782 -5.45725 3.93721
2.37385 -1.49519 1.29613
2.46754 -0.457465 4.55735
1.03307 0.34323 2.32453
0.10176 1.87306 3.21317
-0.0992743 -0.7233 2.86152
0.584479 -0.83725 2.03959
-0.053286 0.555475 6.48881
1.62174 2.81435 2.98882
0.88914 0.56247 2.99463
-1.1112 -0.416218 4.30791
-1.46843 -2.3884 4.48649
1.15701 -2.80505 2.87052
-0.197425 -3.00915 3.26622
-0.222684 1.3065 3.88129
-0.0244047 0.786561 3.11883
3.28944 -1.18588 3.02831
6.02227 -0.0806746 3.12061
1.69885 -0.88293 1.27094
0.366369 0.0455607 0.347803
-1.6925 1.71027 4.20301
-2.09667 -0.135705 2.62416
-0.77105 2.72316 2.34414
-3.26292 0.147995 3.75791
-2.95037 -0.512378 3.63538
-4.1647 -0.766327 2.84253
-0.630472 -0.64523 4.20699
1.27702 -0.938861 3.26938
1.39038 -3.86064 5.40878
0.424984 -3.27785 5.87112
-0.709756 -0.319148 3.77502
-2.88662 -4.20894 4.42819
-0.457633 -6.93294 5.00609
-0.0903848 -0.90566 4.58276
-1.38833 -0.880575 2.59099
-1.23637 1.21618 3.97557
-4.54601 -0.856035 3.90005
-8.4245 2.32254 3.83873
-0.963138 -2.01333 5.43271
0.645831 -4.62139 5.6422
2.79022 -1.08479 6.94043
3.60892 -1.59624 10.5893
0.235015 0.639302 2.00996
-0.711521 -0.677618 2.03619
-1.1526 1.56622 4.06739
-0.573258 -1.15225 3.30659
0.184146 -1.13001 3.15038
-1.06207 -0.61319 2.84767
-1.97721 -2.66224 4.00414
-3.94845 -2.24101 4.47879
0.805294 -1.55143 1.57536
3.01596 0.414282 4.2459
-0.206227 0.0107773 1.16534
0.366905 2.53097 2.8831
-1.83983 1.71553 2.46588
-1.98842 0.127779 3.55183
-0.541132 1.87997 2.61971
0.328982 -2.41377 3.58994
0.7408 -0.660677 3.09289
-2.7051 -2.88338 2.29689
-3.02846 -3.09248 2.85433
-5.51025 -3.74041 5.13622
-2.86965 0.96156 2.30142
2.3875 -1.05587 3.56501
2.29761 -0.873843 2.25833
2.93488 -1.61546 5.30915
5.55328 -1.04994 6.25887
3.39859 -2.83514 7.06366
2.63357 -3.998 8.25602
0.438099 -4.13908 9.76209
4.73743 -2.33662 9.86989
0.435841 -5.21159 9.0744
0.636478 -1.5291 7.00769
-2.02528 -3.22403 8.57688
0.00740122 -2.92744 6.1244
-0.423519 0.5736 6.59639
-2.85957 -1.09844 3.78891
-1.31797 -5.73514 3.09094
1.13366 -4.19522 5.14218
1.73569 -2.04957 4.81091
-2.92639 -0.956366 3.99575
-1.37142 -0.207829 2.47376
0.389438 1.18644 4.13381
0.379289 0.356684 4.08663
5.78629 1.20698 3.20768
5.48215 -2.2055 4.87876
-1.35192 -5.28008 5.41886
0.468455 -3.03475 5.02275
-1.24063 -1.11872 3.15216
0.094588 -1.03946 6.05189
-0.940923 0.411359 3.57991
0.241916 -3.04463 6.9372
5.64887 0.558563 4.65671
0.784127 -2.53818 4.5469
-1.48377 2.70641 1.2479
1.15541 1.09878 0.595781
3.49439 -1.93951 2.67562
0.695463 -4.27513 8.53563
3.20519 -3.92653 5.48148
4.0433 -2.11622 4.73031
-0.531707 -2.33106 3.07965
-2.36311 1.05802 5.18981
-0.889355 1.57547 0.846398
-2.07653 1.13926 1.08317
0.108138 0.51777 1.96343
-0.365186 1.96787 2.80965
2.97884 0.902289 2.48469
-0.988561 0.779377 2.35311
1.52483 2.09009 2.1417
0.268043 1.31107 1.62939
2.60377 2.59179 4.99658
-4.23543 1.99838 5.34554
-2.38704 3.56651 5.74712
-3.91969 2.90373 6.03926
-2.69635 2.72241 4.66318
1.12263 3.59473 2.21698
-0.233444 0.347396 5.31843
3.4304 -2.08742 3.19561
0.177241 -1.71203 4.40468
-1.69001 -4.30757 5.83338
-0.446739 -4.30942 5.11163
-0.718351 -5.10319 5.69519
2.65588 -3.03662 1.7961
-1.3856 -4.09851 3.72151
1.71996 -3.09391 6.82727
-0.371349 -2.24222 6.13881
-1.49228 1.16557 2.70247
-2.64941 1.06947 2.08758
-4.24519 -4.18214 5.57058
-3.50061 -2.86053 3.43085
-0.307431 0.626884 2.38951
0.134571 -3.4823 2.84441
-1.69761 -4.22411 3.98722
0.572816 -0.574288 4.09256
0.756994 0.945219 3.37207
0.733915 1.9619 2.18479
-0.215732 0.978804 2.9904
-0.00781555 -0.695621 2.80806
1.09284 -2.06103 4.28546
1.30862 -1.40182 1.5277
0.503838 1.11759 1.34361
-0.109292 0.154771 1.00807
-0.644157 0.730562 0.994941
-2.13624 -0.151453 2.53055
-0.598654 0.682546 3.13525
1.61711 0.114951 4.124
0.509808 -1.00973 2.32461
-0.25519 1.25676 3.30216
0.315505 1.75771 4.66127
-0.511421 0.25714 5.52382
-0.349438 1.25009 6.8637
0.76533 0.577458 2.16356
-1.57903 1.21761 4.22196
0.705205 -0.353016 4.03358
-1.11626 0.401998 1.39818
-1.73984 1.15023 2.3179
-4.57037 -4.36322 2.4942
-1.93902 -1.14845 5.05234
-2.6292 4.84856 2.78108
0.575713 1.78688 5.10416
2.42533 -0.335522 5.42306
-0.532712 -0.561783 3.12055
1.30867 2.24496 3.37471
2.30335 0.428378 3.73819
-0.292252 -0.654588 1.41796
0.360346 -1.06306 3.56749
-0.601901 -1.57715 4.41444
0.0946877 4.74977 3.85681
1.44891 2.21342 5.65284
3.01779 2.7293 4.98949
1.80885 1.35779 4.77548
1.82856 3.17803 3.92865
0.637181 -0.98907 2.92629
1.58713 2.2668 3.01377
1.54385 1.41621 3.47934
1.76223 -1.80156 1.41255
-2.12085 -0.805178 2.55189
-0.99397 0.784851 1.43123
-1.01297 -1.12793 2.32033
-1.18714 1.82744 3.8835
-0.0643569 3.1483 2.56791
1.10667 -0.907565 0.992277
0.0949437 -2.30465 4.13129
-1.05336 0.261138 4.60015
-0.49313 -1.41586 2.73297
1.61214 -0.447221 2.22871
3.1241 1.36472 5.36179
0.885733 0.856132 5.49839
-2.38235 0.336465 3.23928
-0.794947 -0.267261 2.20758
0.443266 2.82211 4.15974
0.365876 1.89931 4.87906
2.12016 1.14695 5.70524
1.99013 0.305989 2.54463
1.7967 0.225791 3.39988
3.51786 2.299 3.24995
-0.917089 2.01111 5.87363
-0.189325 1.37084 4.78299
-3.51627 1.9596 4.55887
0.863668 -1.61068 2.82169
-1.25787 -0.269468 0.856367
-1.60336 0.459892 2.19204
-0.142552 -3.77006 5.21613
-1.04161 -3.94723 6.6138
-1.61934 -2.03114 3.62052
-1.41155 0.415519 2.01033
-4.62972 1.22036 2.36422
-0.681925 4.21 2.5663
0.0343621 1.61505 1.00347
-0.300948 0.411755 2.69412
1.42872 -0.902364 2.36976
-0.519451 0.141546 3.04755
-1.64571 0.117572 1.48426
-1.28081 3.88378 2.92263
-2.55985 -1.08457 0.813808
-0.319308 0.824732 1.33093
4.06315 -0.5745 4.26913
1.79755 -4.14556 1.93646
4.79548 -1.97302 3.10523
0.701405 -0.841308 5.42513
0.0706009 2.5073 0.764524
1.33722 2.087 2.47007
1.82216 3.48195 1.94918
3.24337 -0.797391 1.55501
4.57607 -1.87156 3.88238
1.52197 -0.229115 3.27716
-2.49961 -0.822836 3.04479
2.06468 1.78386 0.996367
2.26955 2.45283 2.33127
2.09177 -0.513208 3.23676
3.52825 -1.93338 3.74635
-3.01939 -1.98552 2.11776
-1.81074 -5.84235 3.3587
-2.75824 -1.6781 4.82534
-3.5928 -0.785131 2.50478
0.384907 0.0800673 1.03022
0.391052 0.67024 4.14687
-0.969605 3.27386 2.4253
-0.522831 1.40036 1.44405
0.751499 0.954956 1.54732
1.31737 -0.29241 0.960542
1.23515 0.283902 2.09633
0.932923 1.22287 2.58741
-4.65488 -2.88688 3.22708
-3.79327 -2.4058 3.01975
-1.58875 -0.874351 4.1747
-1.21694 -0.761383 4.83
-1.56566 2.8013 3.94661
2.71575 -1.10416 2.63988
1.84073 0.143599 2.05079
1.31873 3.203 1.47381
1.30055 3.21179 3.17111
0.859772 3.92391 1.64343
2.47178 2.82008 4.22165
3.04551 3.92524 2.81219
1.0005 0.956198 2.05636
-2.30445 1.15266 6.78025
3.14642 1.71288 5.8863
1.12246 -0.655768 10.5426
1.22499 -0.714004 3.85861
-1.75302 -1.31095 4.63247
0.758091 -6.8713 5.06085
3.15807 -0.914407 5.24856
3.39624 4.53788 3.20786
4.25448 1.81327 2.85192
1.53395 4.32205 4.5269
0.993558 2.02599 3.49156
-0.41137 0.136476 5.58853
0.301001 -0.940442 5.09409
0.32375 1.24016 2.94875
2.14824 -2.23969 4.77977
2.69983 0.152727 3.79694
-0.43249 -1.03977 1.59902
-1.0215 -1.50248 3.02774
1.3501 -0.304289 4.85261
-0.754263 1.35363 3.63403
-1.14087 -0.60073 3.77628
-2.77136 -5.15801 3.40945
-1.22677 -3.7181 2.49552
-2.47542 -0.744276 2.48158
0.196652 -1.87063 3.477
0.76495 -2.87591 2.45999
-0.0773079 -3.88496 2.5476
3.18047 -0.480466 3.12092
0.229936 0.252272 1.15517
1.04491 0.479485 2.32479
1.06787 0.616664 8.5731
-2.36198 0.679088 6.50859
-1.73296 -0.842916 2.31452
-2.29115 -1.10173 1.16234
-2.49942 1.17382 4.5288
-0.251104 -0.39408 4.17223
-1.30856 1.01001 4.64044
-0.720908 0.970238 2.59146
0.73005 1.3843 1.28828
0.130438 2.18731 4.32034
0.206102 2.12163 3.69498
-0.859658 2.01394 3.47621
-1.71161 3.64396 3.55816
-1.43757 0.815136 4.16822
-0.883137 2.51746 4.82035
-0.44437 -0.09616 3.54328
-0.981568 -1.52394 3.73127
1.73339 0.27541 -3.23887
3.90064 -0.337545 -3.72751
-0.800089 3.68201 -7.50478
1.28757 -0.764289 -2.17581
2.34153 0.239389 -2.57165
2.57633 -0.603406 -2.07672
-0.616942 -0.166097 -2.72995
-0.850701 -2.83238 -1.63621
-1.455 1.87006 -3.12208
-0.848645 -0.492357 -1.63404
-4.86369 1.68995 -2.94026
-3.03509 2.72158 -3.75769
1.55943 1.48082 -5.10851
2.52501 -2.6922 -5.39042
0.308405 -0.250588 -4.32633
-1.96253 3.26742 -4.54192
-3.22868 1.67445 -5.33825
-1.77439 -0.516116 -6.03723
-4.1899 0.174058 -4.69782
-4.0853 2.48082 -3.16908
0.896579 -1.82726 -3.72315
2.45226 -0.791748 -5.10362
-0.0743498 -2.658 -9.19919
-0.684598 -2.83765 -5.28678
-2.44956 0.778125 -2.13513
-2.50149 4.34325 -1.90501
-0.744531 4.1599 -2.51805
-0.883628 -0.167003 -1.99469
0.844761 -2.60991 -2.26586
-2.28619 -3.82014 -5.85434
-0.760249 -3.90404 -2.69446
0.864702 -0.765775 -4.83885
-2.14786 -0.310863 -3.66691
1.90139 -3.85209 -2.44572
-0.0882414 -2.21064 -3.52498
-5.43852 0.777724 -3.00173
-2.74647 -0.115951 -3.24554
0.159252 2.05556 -2.37682
0.602575 -1.58267 -2.38177
-1.01625 -3.89899 -3.00545
-2.26789 -4.22614 -2.77128
-2.51054 -1.86364 -3.03187
0.624079 -1.38405 -3.84664
0.101364 -2.23975 -0.821007
-2.26099 -2.85384 -3.4542
1.44608 -2.63176 -3.39768
-0.544184 -2.15504 -3.25405
-2.50053 1.82551 -7.30682
-1.00637 0.0893571 -8.51101
-1.89278 1.729 -3.35046
-3.46308 4.3987 -4.10854
-3.7856 3.1201 -7.28631
-6.83739 1.75695 -7.36671
-5.10705 -2.55001 -4.31941
0.293068 -0.730507 2.76495
-4.26987 -2.16728 3.89085
-1.14969 0.703409 5.0952
1.03666 -3.19887 3.813
-0.0453854 0.547355 0.703881
0.552388 0.462334 4.04868
1.08846 -1.87191 4.18459
-1.13614 1.27631 4.36967
0.13061 -0.781922 2.1059
-0.0184131 -0.104735 2.4459
-1.32167 -0.141978 2.22144
-2.70764 -2.51352 2.14098
0.608731 -0.984633 1.65507
1.01182 -3.47758 2.14291
-2.15561 -4.74199 4.87662
-3.17893 -3.94474 3.86121
-0.627813 -0.940098 2.18997
-3.29817 1.13896 2.94204
-2.67331 0.591887 5.03771
-1.18657 1.40274 2.74964
0.567581 -0.351862 1.80113
-0.147078 -1.76454 3.01835
0.592002 -3.51019 2.05894
-0.562212 -3.98504 2.10946
-0.0780361 -3.89955 3.36328
1.60687 -3.00826 4.00088
1.74743 -4.17969 4.43382
-0.271101 -0.322636 4.54453
0.389852 -2.01863 1.07423
-2.71451 -2.06711 4.03594
0.242743 -0.635446 2.06981
-1.74427 1.31632 1.55545
-0.642538 2.07888 0.806831
1.23437 2.2997 -1.41259
-3.06382 -1.75229 -4.96257
-3.02997 -1.32799 -4.52943
-0.17847 -1.81326 -2.89338
0.947597 -0.181821 -1.5825
0.976369 0.145793 -2.23772
-0.143114 -2.48086 -0.350607
6.52179 -2.44482 -5.20854
1.66299 1.91431 -5.25271
0.957889 0.367934 -2.42154
-2.0592 -2.15572 -6.77051
3.69428 -1.91951 -3.22441
-0.699429 -0.422757 -2.34189
-4.34125 -1.51046 -4.57103
-0.236416 1.28576 -4.93207
-1.49852 2.79214 -1.9429
-0.458677 -1.21004 -3.14454
1.34417 -3.3198 -2.35747
1.31165 1.00712 -4.12059
0.343059 -0.433481 -2.98447
1.88868 -2.09648 -4.3403
-1.16068 -1.6826 -2.90335
-1.23298 1.42371 -3.37389
-3.64205 1.51175 -6.88894
-5.59762 0.117158 -5.95966
-1.90915 -1.66584 -2.35392
-2.19365 -0.907171 2.03901
-1.75853 1.37236 1.75153
-1.41342 1.72227 2.99741
-1.02961 -0.223016 3.28307
-0.0504826 1.88786 3.09149
-2.71105 3.50108 3.25886
1.53829 2.74852 4.64099
-0.125515 3.85543 2.00446
-0.269901 1.40612 2.05604
2.72098 -1.99447 2.62705
1.20203 -2.9152 3.44617
-0.169539 -1.85891 -1.59451
-3.19517 2.07297 -2.49232
-2.89264 2.62474 -1.2158
-1.04409 1.12189 -1.20494
-2.46913 -1.00535 -3.22904
-3.61928 -0.771222 -3.76166
-4.39612 -1.01832 -2.99038
-0.936829 -0.811278 -3.35777
-2.11858 0.279345 -6.03592
-0.655024 -1.28539 -3.66726
0.123933 2.36922 -4.59924
0.982392 1.95295 -3.09464
-0.753486 0.215044 -1.85911
-0.473103 -0.828656 -2.02324
0.403987 -1.65857 -2.21457
-1.33002 -2.23636 -1.82113
-3.74491 -2.67981 -1.93098
-4.8249 -1.56222 -2.88541
-1.3101 -3.7361 -4.17503
-2.06936 -0.559648 -3.93962
-3.32684 4.09459 -4.23149
-2.73162 2.60411 -1.45702
0.109666 -1.04383 -2.39232
0.00011537 -0.317952 -1.99195
-1.35091 -0.645607 -1.67915
-3.50541 -1.53543 -3.92612
-1.96454 0.946466 -2.68309
0.22352 -1.06532 -0.927006
1.52627 0.0927567 -3.43098
-0.250831 -2.31489 -1.45332
-1.12186 -0.153066 -4.69863
-0.983277 3.13707 -4.54959
1.0424 1.58965 -4.6697
1.7707 0.97334 -4.25061
2.32234 -0.262991 -1.27384
-0.299273 -1.01001 -1.50121
-0.51942 -0.530926 -3.71725
-1.56467 -0.573322 -2.74187
1.29238 0.31878 -0.531426
-0.498998 -1.0284 -3.02648
-1.1607 -1.50618 -4.80254
-2.71973 -0.133959 -4.75355
-3.20706 -4.28453 -2.09159
-2.14397 -0.869772 1.31205
1.26769 1.05799 3.10791
1.10237 1.48544 1.9239
-0.882556 -0.622728 1.47505
-1.39158 0.567474 2.38888
-1.13786 -1.09582 3.10325
-0.132496 0.957496 0.996114
-2.40235 0.904191 1.74051
-2.00358 -0.808574 4.51797
0.373163 0.698689 5.72321
2.69573 1.53434 2.67306
3.66844 -0.60564 2.51037
-0.652666 2.25523 2.55968
-0.980958 0.41458 2.95019
-0.109541 -0.859189 1.37708
1.24952 0.52121 2.09709
1.02126 3.34302 3.79037
0.929329 1.07888 2.42889
0.55858 -2.12066 2.05296
-0.727817 -1.18029 1.66841
1.68937 -0.944682 1.02918
1.31946 0.279818 2.46178
-0.623285 0.866638 1.18233
1.00833 1.64146 3.97957
-1.06365 1.58411 3.58883
-3.3909 -0.708544 4.37665
-0.933119 -3.0272 8.97849
-1.33994 1.94109 6.38199
1.23689 3.24982 8.23877
1.19639 4.18152 4.90936
-0.124674 2.77661 1.53442
1.23301 1.06396 2.258
2.7478 0.359768 2.71796
1.01359 -0.140377 1.43874
-0.349109 -0.559101 1.62983
4.50795 3.75585 1.55881
0.905564 1.88779 4.15564
-0.533954 2.76943 4.22218
2.02392 0.104074 2.90116
7.37803 5.76587 3.69864
5.38741 1.356 2.33952
1.89155 -0.505316 5.48592
-3.39619 -0.553053 5.52999
-4.74837 -1.646 4.64258
-2.28448 -1.57203 3.16973
-1.09464 2.32991 2.85405
0.433271 3.65357 3.70316
4.0063 -1.37046 1.65079
1.57911 0.54548 2.25694
-0.195599 0.104143 2.93476
2.42882 0.828313 1.75124
0.624131 0.477334 -1.65662
0.250329 -0.571755 -1.27666
2.12935 -0.0624754 -3.19591
1.53496 2.36674 -3.19219
0.0069673 0.248592 -2.84963
0.985239 0.228218 -2.88518
0.783679 -0.356634 -3.05516
-0.450065 1.2051 -4.44176
-0.550958 2.52143 -3.42713
0.265543 -0.74616 -3.41412
1.68217 -0.787735 -3.11747
-0.54894 1.32293 -4.01114
3.19224 -0.938749 -1.76202
1.9057 -1.32001 -3.58273
0.185184 -2.45821 -3.62561
0.934521 -0.523188 -4.24086
-1.38668 0.458409 -3.40951
0.198357 -1.43864 -3.91169
-2.417 0.795731 -2.25786
-5.74994 -0.814595 -1.51354
-1.663 -2.83593 -3.04251
0.50845 -0.824492 -2.05926
-0.291003 1.48621 -3.80852
-1.22524 1.15817 -5.13983
0.94533 -0.271505 -2.4233
-4.78107 -0.0183825 -5.47882
-1.71954 0.373396 -5.81974
-1.11059 0.221712 -8.15272
-3.82283 2.54712 -8.27067
2.11083 1.74055 -2.29861
1.12545 1.06472 -1.40886
-1.70263 -1.17142 -2.23166
-4.73678 0.386593 -4.71107
-3.43433 2.24649 -2.29638
-3.17629 3.03353 -4.49678
0.529284 1.50958 -2.25036
4.21835 -0.0699006 -3.14811
1.84362 -0.918679 -1.24146
-2.19404 0.731228 -1.48035
-1.08106 -4.72729 -5.37143
-5.72918 -4.58352 -4.06933
-7.18638 -1.54458 -4.57407
-2.54843 -0.816084 -5.54157
-5.24083 0.295343 -3.49072
-0.977287 0.611971 -2.66618
0.492689 0.0285573 -3.01882
0.900809 -1.4976 -2.71623
2.66846 -1.75553 -1.51595
0.586618 0.666165 -4.09301
2.99162 -1.37711 -5.96113
-0.989277 -0.398492 -3.08298
-0.949786 1.25178 -2.68101
-0.406944 0.869498 3.44973
0.70598 0.341887 4.2665
-0.605693 -0.784756 1.53844
-0.162154 -3.16899 2.82923
1.44586 -2.5581 4.97689
1.933 -0.284736 -2.89495
2.14249 1.51117 -1.36851
-1.38966 -0.702025 -0.303558
-0.60308 -1.42951 -1.17034
0.197876 2.34526 -1.65735
-2.09032 2.07298 -4.86114
0.362745 -1.71986 -2.46664
2.00564 -3.09782 -2.28257
-1.03238 -2.45058 -4.11885
0.066494 -0.508685 -2.83822
2.85104 0.605335 -3.9598
0.135562 -1.14031 -8.92921
-0.761392 1.30072 -7.24272
-2.91423 1.62232 -3.70751
-2.83027 -1.34459 -4.04781
-3.16083 -0.421667 -4.29348
-3.17496 0.949099 -3.53783
0.0577059 1.27154 -2.67942
-1.74009 -0.258951 -3.05222
-2.822 1.69762 -2.14533
-2.71941 -0.105329 -5.53498
-1.38971 -0.193242 -1.1256
0.171878 0.828155 6.78146
1.10739 2.52777 3.09968
-1.99562 0.756671 3.16756
-3.27992 2.04995 4.96261
-3.19538 1.95551 3.60419
-4.48022 -0.217508 1.88657
-6.01035 1.362 2.85538
-4.22338 -3.25832 5.82311
-2.80684 1.62727 0.879859
1.27524 1.2874 1.31478
-0.497398 -1.21616 3.03164
1.03415 -2.07248 2.98397
-1.28609 2.40243 3.39927
-0.208044 2.49455 2.56729
1.38039 -0.20956 2.05597
0.194763 -1.69762 2.19171
-0.930169 1.12034 0.751104
-3.36347 1.91486 2.26748
-2.18161 1.05839 4.10499
1.04364 0.199142 2.91793
-3.03585 -0.545762 1.04205
-0.551313 2.00028 2.13608
-2.14192 0.629226 1.67485
-1.18614 -1.58743 1.61455
-1.62117 1.28331 1.69135
0.679138 1.36483 3.61423
-0.305284 -0.850088 3.28333
-3.40636 1.42157 2.36913
1.68345 -0.605062 3.89999
-0.74771 -0.751433 2.44666
0.359641 3.25219 6.25442
-3.41817 2.73736 3.90217
-2.11584 2.91335 1.69726
1.08503 0.547131 1.45873
0.0459822 -2.2026 3.09081
3.39201 -0.687284 2.48813
-0.270362 0.241344 1.92742
1.15042 0.566093 4.48801
2.23002 -2.24009 3.67648
-0.475325 -0.790332 1.43713
1.06138 -0.00667127 3.62306
3.16331 1.30253 5.25783
-2.01126 -0.292244 3.49731
0.687558 0.896507 3.015
-2.43579 2.23352 4.6642
-0.792866 -0.169869 1.0983
-2.20283 1.31785 3.94045
-0.607252 2.10886 2.6189
-2.79459 -2.65157 3.49424
0.0314278 -3.66798 3.33075
0.846591 -2.58312 1.65526
2.32707 0.0584957 3.75671
1.36878 -1.46845 1.40852
1.59902 -2.13227 1.79339
0.589041 1.41953 1.83562
1.04838 -1.91655 1.10145
4.46825 -4.4711 1.3152
-0.64279 -4.67411 2.54248
0.923544 -5.18284 2.03174
4.1826 -2.80868 0.971142
0.70639 -2.29173 2.59967
2.74747 -2.37372 1.22966
-0.228897 -1.36117 3.29059
-2.17211 1.68958 5.72768
-2.96973 1.69767 3.5237
-3.37264 1.77722 4.53358
-4.0527 1.49719 2.45303
-3.80503 3.21343 3.41057
1.24433 1.98059 3.27707
0.714947 1.82749 4.61326
1.36172 0.88844 5.08421
3.14084 1.46725 2.41645
0.938277 0.0186465 1.77599
1.62316 0.820028 1.79264
-0.526806 8.17848 -3.94879
-0.357764 5.87592 -5.15245
-2.00991 3.58182 -1.33857
-3.59326 6.08252 -4.99388
-3.26224 4.54674 -3.78288
1.45565 3.84572 -6.68599
-2.10841 1.8682 -4.3047
-5.08635 4.03437 -6.54449
-5.04792 3.63769 -5.89402
-4.76493 2.47223 -3.33416
-2.60902 -1.34415 -2.07299
0.388434 -2.83299 -1.93905
1.87117 -3.02628 -6.10489
-1.60412 -3.43633 -1.96407
1.60242 -2.43816 -3.93929
0.873579 0.812818 -1.69074
0.509321 1.33906 -2.58117
0.564996 1.81643 -1.39706
2.85351 2.49026 -3.63205
-0.334416 5.79616 -4.03038
-0.0182449 3.70236 -1.0704
0.159306 0.0599783 0.289426
0.135128 2.45394 1.58462
-2.8369 -0.37753 1.5037
-0.420364 0.738027 3.46293
0.57927 -1.49844 5.34437
-0.582053 -0.121182 6.25457
1.93343 0.106841 7.80276
-0.189729 -4.38126 10.2571
-2.26499 -4.67086 9.68446
3.44002 -5.60077 4.73089
8.08134 -6.07291 4.66626
6.80936 -2.66673 8.37302
3.5717 1.83882 5.03055
0.512897 1.56329 1.97931
-1.28697 1.93613 -2.17272
0.915673 0.541853 -2.55865
3.70326 -0.915645 -4.51422
1.16971 -3.58095 -3.31765
2.09832 -3.9206 -2.66581
0.268403 -0.0583508 -3.6126
-1.19179 0.260462 -5.1673
-1.1095 -1.60633 -1.72783
2.4915 -3.6216 -1.7763
0.381742 -1.51351 -3.23957
0.737425 -1.72551 -3.1078
1.90868 -2.93102 -4.21075
2.74918 -5.15954 -1.55961
5.38083 -0.885303 -3.33327
3.15579 -1.25754 -4.63555
0.198977 2.89313 -7.53118
1.52256 -0.0505734 -7.6078
2.2808 -4.85422 -7.86417
1.5112 -9.18093 -4.30104
-0.850229 -2.83333 -5.23673
0.478075 -2.90162 -2.608
1.14397 -1.11868 -3.53427
-1.84186 -2.08237 -2.61809
1.01746 -0.763471 -2.77133
1.81137 -0.699693 -5.21753
2.16906 2.01981 -1.83339
2.12692 -0.305131 -2.27017
-2.41533 2.78794 -4.34552
-1.03187 2.76721 -6.11966
1.04858 6.91421 -5.61794
-6.5166 4.90542 -3.67015
-4.23326 4.33366 -3.42901
-2.53775 2.67614 -2.80914
-0.789858 1.35458 -0.687122
2.67363 1.93101 -1.27176
-0.427797 -0.115935 -2.17981
1.52029 -0.371206 -5.97933
0.897146 2.27132 -6.38773
-0.87082 0.106041 -2.99911
-0.711982 0.0589551 -1.25678
-1.73442 3.20674 -2.36557
-0.570852 3.40311 -1.58091
-4.52535 1.9555 -2.25027
-6.35282 -2.30846 -4.40243
-2.91329 0.640695 -5.03046
2.28166 -1.42592 -3.31496
0.782054 -1.49255 -2.69904
-1.1112 0.200055 -3.62462
1.50848 3.52944 -5.22676
3.30835 3.53928 -4.04484
5.94338 -0.418598 -4.04294
2.44295 -0.585478 -1.84388
-1.35865 1.6358 -3.52188
-0.466118 -1.08186 -7.60265
-1.92988 -8.80487 -5.06701
-0.777063 -7.71557 -5.18839
1.85905 -3.41611 -5.95359
1.80814 -2.72216 -3.00234
2.68684 0.0476672 -4.14992
-2.64715 0.639383 -4.09296
-3.58425 -0.785152 -3.27829
-4.11628 -2.60706 -3.16955
-2.41247 2.15794 -3.31635
-2.89601 0.825047 -5.09273
-3.20405 1.14579 -3.77984
-5.54085 3.91806 -5.59473
-2.34733 -2.14957 -8.55576
1.85693 -1.97081 -7.01431
-0.0337268 -6.222 -7.61602
2.46232 -3.3668 -10.468
2.66607 -3.30603 -4.58731
-2.93338 -2.04634 1.48167
-2.09633 -0.474342 2.17675
0.83164 -2.26276 5.11284
0.548708 -0.229536 0.959467
1.92903 3.68112 2.79299
-0.516903 1.14339 1.68496
-2.44793 -3.03327 3.15233
-0.233361 -0.883662 5.60697
-2.0765 -2.53132 9.19899
3.56747 1.28167 5.22567
4.87922 1.81782 1.87114
4.05753 2.37434 4.04294
3.59594 4.28256 5.97174
3.25309 -1.10687 6.62783
2.25828 -1.31168 3.77162
0.501083 -0.815974 2.75704
-1.32418 -1.89396 4.10303
-2.66592 0.899706 2.78599
2.44318 -0.195229 3.59274
-2.34959 -1.66819 3.58255
-0.767243 0.637831 2.2062
-0.463721 -0.355413 2.54105
2.3157 -1.02152 4.09309
2.1916 -1.80214 5.94305
1.87649 0.0924991 5.16362
1.35175 1.86589 4.82212
0.626571 2.35103 2.78245
-0.060432 -1.56923 5.35721
-3.94297 -0.370536 10.2102
-4.59991 0.454578 7.33425
-0.810572 1.40887 5.23512
-1.34051 0.789034 3.22563
-0.523624 -2.93292 3.7621
1.21908 -2.50328 4.95596
3.59417 -0.665636 3.611
1.05125 -1.3209 1.78257
0.784627 -1.73195 2.68027
2.41115 -2.0243 5.608
3.65304 0.5041 3.46336
0.691483 -1.56788 4.61569
-0.750337 0.309717 1.71736
-0.309895 0.0707098 1.81147
-3.75063 -0.529451 2.61524
1.62748 -1.51609 1.54656
-0.783988 0.985309 2.60168
-0.193256 2.30833 1.30519
-2.12782 0.792147 1.58734
-1.62449 0.858268 3.90242
0.877422 -0.891158 2.39606
1.867 0.922499 2.58691
1.35944 0.284681 0.946775
-2.26053 -2.48675 2.88908
-4.46738 -3.21194 4.3839
-1.48967 -1.16857 3.19379
1.70712 -0.326674 4.70439
0.00403275 2.04283 4.91119
3.77368 3.09986 4.91795
4.30816 -1.61582 5.99496
3.86874 3.19848 1.9552
3.60355 0.835005 4.8347
-0.711481 6.28639 7.42066
-0.126979 4.51592 5.17371
1.86949 4.77614 5.33099
2.03175 2.6085 3.06441
2.82375 -0.645376 3.43573
1.25512 -0.552285 2.95127
-0.123804 -2.21147 3.70452
-1.12889 -0.267327 2.49952
-2.58528 0.689429 4.75446
-5.57809 0.85252 1.84021
-8.78729 0.855606 3.73095
-4.7291 1.72469 4.34558
-3.32566 2.26289 5.00326
-2.54424 1.63736 5.31972
-2.58362 -0.847159 3.95932
-1.02303 -3.83247 6.06085
-1.98541 -0.190467 5.80799
-2.89862 2.92662 3.34249
-1.88796 3.64438 1.5452
0.765944 -1.93155 4.12671
-1.04073 -2.76851 1.14466
0.650998 -0.670971 1.40961
2.62959 -4.75249 3.62815
3.41734 -4.6067 3.93069
8.25281 0.376323 1.68624
4.68116 0.035813 3.22368
-0.30744 -0.536781 4.82889
0.422045 1.30395 1.86235
1.8418 -0.661313 2.53522
-0.21677 -1.96714 2.1778
1.16253 -0.584799 1.25494
-0.00785288 0.487136 4.51799
2.62816 0.377894 1.05472
1.36798 0.0515884 2.82075
0.850306 -0.528887 1.19883
-3.38747 2.9152 -3.73296
-4.37973 0.245191 -4.41383
-3.77384 -0.648476 -3.01172
-4.23026 -2.44746 -8.06181
-6.72012 -1.40439 -6.3289
-4.14052 -1.65137 -4.69498
-3.98427 -5.29306 -6.98834
2.16186 -3.71385 -10.0026
8.61468 1.99843 -7.74245
5.45659 1.2701 -3.69138
1.85634 0.966473 -7.34302
0.408583 -1.62251 -0.806078
0.0689787 -1.92486 -2.73789
0.159716 -0.861805 -0.84453
-0.561472 -2.35703 -3.41547
-0.340338 2.42609 -2.36921
-0.527965 -1.5487 -2.40892
-2.18213 -1.52984 -6.97424
-5.19711 1.58708 -5.24628
-7.83214 2.77181 -7.30783
-1.94669 0.811193 -5.08852
-3.874 -1.02844 -3.09572
-0.453533 0.685185 -3.42232
3.25143 0.528977 -2.13001
1.49131 -0.647622 -1.75472
-0.667249 -1.24493 -3.02002
1.68121 -0.606182 -3.23414
1.98121 -1.79097 -6.28426
1.07325 -4.33656 -3.8534
0.907916 -2.76351 -2.03736
1.20508 -1.08575 -0.797247
0.154151 -1.82839 -1.87968
1.97784 -0.150299 -2.9791
3.21981 3.0508 -4.04474
0.834166 -0.703407 -5.19805
-2.41003 -0.870843 -3.22668
1.07836 0.409023 -5.24671
0.109027 -3.17565 -4.6669
-1.49729 -1.39221 -2.4742
-2.73342 -0.90188 -2.34911
-0.360411 0.128105 -3.58078
1.97463 1.35567 -4.70444
-0.217764 1.55287 -6.65217
-0.726563 -3.42799 -1.22443
-0.803834 -4.75912 -1.74072
-3.85173 -2.85776 -1.51715
-2.26096 0.38633 -5.00396
0.000199564 2.77012 -2.85828
-3.36316 5.41903 -8.30304
-1.03352 2.72493 -6.73985
-0.83075 0.163426 -1.42804
1.12673 3.18767 -2.92562
-0.549162 2.41949 -3.95367
-0.129666 0.797698 -1.92562
-2.55148 -1.50025 -2.2152
-1.60874 -1.78091 -3.99226
-0.117592 1.59934 -6.79993
2.89872 3.34612 -6.85862
2.06927 5.44333 -8.40728
0.0963943 3.63818 -10.4954
-1.75107 0.2961 -7.93083
-2.48691 -1.28026 -3.93889
0.537389 1.11358 -2.13669
0.371937 -0.967996 -2.31263
1.26974 1.79199 -2.96544
1.1331 -0.336003 -3.7403
1.09917 1.19601 -5.56051
0.316742 3.0647 -7.3205
-4.73948 5.10188 -2.85
-5.28436 4.94599 -2.23139
-5.82532 3.89755 -4.08689
-2.58925 6.76762 -2.67904
-4.87304 2.48674 -2.30706
-7.00638 5.3831 -3.3971
-6.04278 0.764967 -2.07095
-5.32872 -4.40395 -4.11845
-1.38765 -1.47854 -3.05048
-1.35398 -0.440485 -2.36331
0.23894 0.211837 -2.32981
1.15633 -0.773878 -2.60067
2.57831 -2.34911 -4.6192
0.620281 -2.19171 -3.01573
1.41968 -3.07829 -2.79453
0.0290016 -1.04973 -0.50433
0.590107 -0.0545097 1.98298
-1.377 1.65609 2.546
-2.07663 -0.304425 6.36786
-5.03494 -2.24111 4.6244
-4.50351 -2.20886 4.84206
-1.12395 1.52732 6.80194
-0.515215 -0.619605 5.48429
-5.08536 -0.418864 4.12143
-1.49296 -0.079061 4.49705
-2.7515 -1.29438 3.31946
-4.00871 0.300054 1.77391
-2.11452 -0.174369 2.99611
-1.10569 0.787126 2.60461
0.752294 -0.561346 5.00968
-0.447403 -1.85994 1.1708
-1.16634 -1.43576 1.53222
-1.10664 -5.05148 4.26906
-4.7108 -2.35663 3.60875
-3.13349 -0.0387147 2.78044
-0.33925 -0.132534 2.60701
-1.16467 0.245744 5.58846
-2.16018 3.62775 5.62779
-0.469472 -0.827735 2.12862
-1.69672 -0.703938 1.42523
-2.14558 -0.945992 4.12985
-2.37656 0.198677 0.663418
-0.746595 0.999856 2.95213
0.891038 2.26961 2.51707
-3.47085 3.83144 6.86619
0.622805 1.01024 5.04415
0.392692 0.944472 -0.403853
-1.42627 0.685564 -3.3415
-2.14598 2.06203 -5.18422
2.65593 1.44421 -5.36803
1.39678 -0.640856 -1.97587
3.87327 -1.06332 -2.60827
2.5103 -0.444562 -1.86014
2.79399 0.595328 -2.734
3.03984 1.32377 -1.99904
1.17949 2.7464 -3.71542
-0.834073 -1.45305 -1.06785
-1.17044 -0.667411 -3.98131
1.75443 0.131517 -2.82897
1.57155 -0.0567046 -1.50044
0.665668 1.52413 -2.1563
0.509756 3.98517 -2.63466
0.81297 1.85957 -2.65924
-0.290493 -0.331582 -4.63075
0.407732 1.52148 -3.78638
-0.21402 0.0707059 -7.16126
0.916628 -1.18914 -5.81103
-0.185328 -3.07966 -4.33018
-0.495248 2.05383 -5.63
-1.94206 0.953901 -3.06465
1.44662 1.88388 -3.82744
-0.318125 2.77923 -2.56016
-2.70833 -1.53006 -5.14404
3.18987 -1.12046 -2.79396
4.54393 -0.878468 -0.960588
-0.952963 0.944278 -2.46052
0.0332737 0.841547 -3.52679
-0.640472 -0.150848 -1.863
-2.52948 -0.90828 -2.71397
1.29209 1.11833 -3.98165
0.984466 -0.826401 -5.8351
0.239048 -0.452273 -3.10017
1.18317 -2.02689 -1.91411
2.71634 1.0431 -2.74101
-1.07014 0.823224 -2.19885
-1.21524 1.43396 -2.66778
-0.256665 3.42655 -2.67685
-0.782778 3.29933 -4.04335
0.43006 -1.87311 -4.06791
1.09403 -3.29271 -1.87307
1.64462 -4.2427 -3.99749
-0.622808 -2.02317 -3.99423
-0.187684 -2.09294 -2.07702
-4.5227 1.86206 -2.98612
-1.84883 1.29778 -2.45939
-1.41283 -1.34233 -1.52101
-2.66037 0.0846077 -2.88379
-1.28861 -3.36516 -1.93377
-2.78142 -2.13879 -2.7722
-1.23926 2.77888 -4.20237
0.191194 0.157948 -4.14185
1.81113 2.36967 -5.00422
3.91501 2.88818 -4.18021
2.91217 0.89264 -2.36221
-3.09061 1.63148 -5.1694
0.570803 1.67792 -2.87888
3.53149 3.58985 -4.06414
2.73851 0.734612 -4.04998
3.44215 -2.08654 -1.40694
2.96678 -0.697547 1.57775
1.08005 -2.62618 2.11131
-0.799926 -5.10656 7.51243
-2.21843 -4.23219 9.67095
-0.937714 -4.9766 11.2279
-0.464554 -2.675 11.1775
-2.8454 -0.760242 7.3672
-0.668343 -1.21567 4.59738
-2.97954 -3.18094 2.41242
-1.82388 -1.25222 3.90124
-0.125294 -0.0271477 2.38361
1.21753 -0.078747 3.81346
2.18893 2.91807 4.73287
0.885172 1.32094 2.3304
3.11938 0.180762 5.05746
-0.626627 -3.01517 3.36262
0.486906 4.25046 4.59665
-0.765904 0.855673 3.19133
-1.97584 0.32299 5.30852
-0.0929177 -1.23998 3.60445
-2.3231 -2.9255 5.28297
2.68359 -3.93074 8.82615
-1.74739 -2.58944 7.64922
-3.36404 3.03223 5.12358
-3.41021 1.96128 4.62332
0.096083 -1.24022 4.06388
-0.993444 2.75405 5.59358
-1.31468 6.49668 5.43743
0.206214 1.75889 7.75926
0.732562 1.15409 4.19867
-2.72671 2.55114 2.86211
-2.55895 1.69541 2.61708
0.785593 -0.630288 3.3265
-0.579458 0.401149 3.76548
1.79895 0.650528 7.90017
1.89155 -1.01638 6.20077
1.68786 -0.0274388 4.21515
1.73615 -5.08084 4.25443
-1.61348 -0.421674 4.41605
0.399195 2.23439 2.77218
0.50246 -1.89722 1.59098
-2.26104 -0.332801 3.36537
-0.262487 -0.354165 3.40149
0.443704 -0.328935 -0.95824
2.29131 1.97848 -1.31521
-1.7906 -0.0116704 -2.2142
0.601078 -3.64965 -4.35651
3.15848 -2.34605 -5.38309
1.60412 -0.0449513 -1.40282
0.241645 -0.6126 -2.80164
-0.965416 -1.18141 -3.26465
-0.678253 0.614135 -0.943924
-1.82587 -0.903029 -2.36553
-1.2043 0.0795722 -0.913832
0.759181 -0.720515 -2.08241
-1.47074 0.650221 -1.71844
0.872703 -0.976295 -0.939835
2.78267 1.34717 -4.09906
2.36401 2.31427 -5.11465
0.274049 2.33431 -3.53249
2.73098 0.0533192 -3.53011
-2.04632 -0.394108 -2.09188
-1.74173 -0.0428977 -2.27164
-2.07524 2.62455 -4.6583
-1.13519 -1.74913 -2.1765
0.541973 -3.74588 -4.42198
0.315191 -5.38371 -7.02468
-1.93459 -5.34908 -6.15467
-5.30456 -2.23281 -3.05562
-4.1969 -1.01585 -2.55855
-1.03778 -2.19446 -2.73703
2.52928 -1.84354 -1.07624
1.71216 -2.3557 -4.07444
1.58183 -3.90908 -2.19446
-4.21076 -2.86551 -2.01427
2.07075 -1.65351 -1.78374
0.601449 4.21419 -5.44793
1.5868 1.13642 -3.2619
0.967387 0.076319 -3.5226
1.32796 0.00185983 -3.41207
0.557327 0.282552 -7.44365
3.93334 0.351346 -4.34233
3.40897 1.98923 -3.33768
1.20366 -0.322009 -1.87757
-0.0896798 -2.06248 -2.91586
1.28291 -0.770093 -4.69367
0.310871 -0.180614 -2.88327
-2.5814 -1.98729 -2.38158
-1.12713 -4.71874 -2.69356
-0.992657 -2.62401 -2.94044
0.911422 0.477354 -3.20887
-0.156296 -0.244297 -1.56724
-0.602561 -0.664722 -3.47245
0.907197 0.597026 -6.45858
1.18219 2.89714 -6.18305
2.66008 2.08491 -4.28722
1.13635 2.70596 -4.25853
2.5907 -0.13207 -2.45381
2.62312 0.423702 -4.90648
-3.2305 -2.30354 -3.13882
-1.1807 -2.2727 -1.90423
-1.21318 -3.16529 -4.09839
-3.60536 -1.45564 -1.86807
-0.696565 -1.26642 -3.03598
-1.94622 2.15014 -5.51847
-4.02714 0.687019 -4.96682
-0.320543 0.225638 -1.62073
0.714996 -2.42821 -5.22445
2.92629 -2.8067 -5.26304
2.52311 -1.0696 -1.84807
1.20825 -3.35782 1.25669
0.534424 -1.98477 1.14693
-1.78354 -1.37305 0.666411
0.291255 0.240048 1.00308
-0.525923 -0.719647 4.3104
0.0362221 -2.18005 5.89586
1.67679 -0.171337 2.41949
0.576999 2.69949 5.20317
4.66647 -0.992835 5.48857
2.87194 -6.73569 4.31487
2.29296 -3.29953 2.63857
1.50414 -2.5427 3.37574
-0.948466 -1.85001 2.61752
-2.0855 -1.19163 0.933077
2.37096 1.67459 1.73802
-0.0805243 2.43471 1.7111
1.25674 0.0694726 2.0376
0.567309 0.276889 5.1108
1.39194 -0.778968 3.78086
2.52739 -0.554563 4.27629
-0.584336 0.664892 3.33372
0.877413 1.59723 1.43875
1.04315 -1.19173 3.17803
-1.49327 2.217 2.86957
-1.62232 -0.237794 4.16301
-0.0895694 1.13904 4.74293
5.76862 1.96471 2.73305
3.71319 0.238862 4.51322
3.15367 -2.14082 3.70681
5.10885 0.594218 8.75081
4.15335 -2.9372 9.4259
-0.11007 0.150726 9.36825
1.00554 -1.26964 5.91361
-3.95368 -2.98655 3.13335
-0.596797 0.728148 0.864059
-1.09228 0.919852 1.89382
0.739952 -0.862433 2.52862
0.764899 -0.100261 3.03447
1.78126 0.376651 3.40452
-0.660247 1.63863 4.19642
0.173982 1.06294 3.57567
2.39871 -1.46242 7.8965
0.984977 1.35686 6.00053
1.08433 -3.33568 3.24316
3.32824 -1.78282 5.58115
-1.12138 -1.55721 2.64763
1.35725 -3.27609 3.50715
6.66329 -4.36268 6.19492
4.72416 -1.97772 12.9732
3.25162 -1.57464 10.3486
-0.343459 1.44394 6.00126
-0.0114478 1.7353 3.34152
-0.511047 -0.83654 2.08852
1.99466 -0.183993 2.90288
0.377369 0.941318 4.24846
2.51731 1.30641 1.17249
0.6551 1.18605 0.945329
-0.73658 1.37292 1.83956
-2.44531 3.14844 1.59709
-0.340526 -0.544962 4.40286
-0.0103323 0.91023 3.62363
-0.841956 0.752916 1.35544
-1.93594 0.109125 -0.814889
-2.24282 -0.762528 -2.24424
0.979931 -1.27699 -2.93347
1.6737 1.17519 -4.4946
-3.04818 0.909669 -3.97385
-6.14548 2.07877 -4.8974
-1.76172 -0.733649 -4.57685
0.116944 0.919684 -3.0541
1.22936 -1.17298 -3.66143
-0.362347 -1.11623 -2.65534
-4.69366 -1.205 -2.79091
-2.68864 -0.392516 -2.45155
-0.896711 -1.27501 -4.74644
-3.01118 -4.18568 -6.63779
1.51268 -3.75393 -4.86093
-0.845745 -1.12825 -1.80387
-2.2394 -0.488481 -3.90864
-1.10041 0.0345483 -3.8288
-0.332697 -1.44675 -2.61222
2.19709 0.196189 -3.37096
-0.571027 -0.142177 -2.32809
-0.464684 -0.915273 -2.8151
-4.12207 -1.30214 -2.74835
-0.824799 0.158455 0.917476
0.0197899 -0.703967 2.45692
-1.16713 0.861958 -0.461926
-0.240292 -1.37174 -1.22206
-0.860435 -2.21748 -1.78865
-2.11592 0.126631 -0.946713
-0.817868 -0.598822 -2.54349
-2.11614 -0.744327 -4.3924
2.37819 -1.82885 -7.64858
1.13865 -0.478769 -5.79305
1.68348 -1.39649 -3.21819
0.654877 1.25408 -1.65276
1.37612 -0.427094 -3.66928
-1.4211 3.01745 -3.96389
-4.43273 2.5411 -2.16111
-3.55254 2.77962 -3.25127
-0.483351 -2.25188 -3.71291
-4.78925 -0.181882 -1.11008
-8.45378 3.31597 -2.61249
-12.3004 -0.180547 -1.60697
-13.3385 -2.74175 -2.88371
-9.59018 -1.87319 -3.46909
-9.1228 -0.259586 -2.35609
-2.30743 3.07096 -3.62959
-1.96199 1.4711 -6.10081
0.526455 1.46054 -3.2788
0.47846 1.09904 -2.85128
-0.422652 -0.163439 -3.03323
0.833109 0.387631 -1.8165
0.665188 -1.04974 -4.42614
3.75446 -0.675514 -2.27727
1.0826 -1.65833 -2.97694
2.37822 3.17285 -4.91474
1.21117 3.55637 -4.43096
-1.93561 -0.117748 -2.88434
1.75026 -1.01477 -4.79623
0.46843 -2.10155 -2.08842
1.16279 2.6959 -1.38065
-1.28624 0.249223 -2.27103
-2.64104 -1.62511 -3.645
1.98284 -1.26959 -1.88351
-2.34705 0.180283 -1.97598
-0.24497 0.244461 -4.55862
-0.959981 -1.19341 -7.17041
1.59531 -4.32552 -5.28838
-4.95886 -3.02292 -4.49202
-3.93121 1.67002 -2.50085
-3.81762 2.27681 -0.832071
-6.21855 -0.60691 -2.8914
-4.02254 -0.0184885 -3.32644
0.314286 0.166008 -2.78567
-1.99937 -0.0113821 -2.13391
2.57953 2.09917 -4.02374
0.64865 0.794104 -7.94626
-0.37578 0.538371 -5.69409
-1.49917 2.04861 -6.24835
-3.09261 -0.596943 -5.65334
-0.650796 0.393046 -4.2699
-1.06415 1.19993 -3.2476
-1.33395 1.15112 -1.83888
-0.204344 -0.932921 -4.04754
-1.52459 1.46191 -5.65045
-2.10907 2.76451 -5.82921
3.3187 0.376587 -1.98585
1.27187 2.98776 -3.90867
4.00045 -0.0337442 -3.76274
2.4195 2.24268 -3.02529
2.65012 3.65428 -2.38574
-0.474228 0.211993 -4.72576
-2.59583 2.25595 -3.62352
0.70776 1.53563 -2.02994
-0.290535 -0.528247 -4.70808
-0.426511 1.82904 -1.47757
0.338294 7.11982 3.02657
-3.37424 3.87858 3.01459
0.578697 -0.723626 3.06142
-2.76188 1.71744 3.13545
-0.767706 3.52124 4.44035
0.785413 2.84759 3.71123
-3.93407 -0.764922 1.3034
-6.82001 2.54386 4.66529
-8.4437 4.25055 6.41708
-2.8351 4.2653 7.51974
0.450529 -0.0624976 9.93582
1.1432 -2.39436 12.0637
0.0927738 -1.83809 4.42781
1.6139 -2.89168 2.39388
4.98353 -0.74564 7.50973
1.976 -4.44454 4.9035
0.629463 0.0868141 1.76706
-0.0521097 5.11545 2.18349
-0.823985 4.89014 4.87777
-0.43611 3.71404 7.07396
0.176278 3.36748 5.94832
-3.1289 2.02834 5.07193
-0.504137 0.512899 6.84235
0.849194 3.03327 4.74315
-3.06856 0.792305 4.1553
1.33814 -0.617428 3.11319
1.62485 -1.13831 4.82436
0.448982 0.581847 2.26887
-3.74363 2.46392 3.20512
0.129699 2.0127 0.903743
-0.0663801 2.32371 1.79532
0.670666 0.876676 5.35894
-0.85465 2.65025 1.18182
-1.48146 1.94136 2.1236
-2.20898 0.0420455 2.75153
0.163113 -1.25293 4.1803
-2.49275 -1.58806 2.96683
-3.32495 -0.0875662 3.80204
-2.98333 0.160402 8.48165
-3.63575 -2.78184 4.56016
-0.66132 -0.902681 2.04986
1.28872 1.2077 5.0736
0.736607 -1.27352 3.98694
-0.0280299 -3.19869 2.09348
-4.05234 0.270031 3.37481
-0.78396 -1.16518 3.71472
-0.478426 2.78439 3.60478
-2.82697 1.48186 7.47302
-2.20981 1.43473 5.43132
-1.28735 -0.600167 1.88163
-0.655896 -1.45313 3.10761
-2.53856 -2.95362 0.214291
1.33668 -1.66758 1.88308
0.124043 -0.88959 -0.487293
1.79349 2.12496 -3.94706
4.32606 -1.06816 -2.43274
1.99475 6.47624 -7.12077
-2.47361 4.88516 -5.28903
-1.11012 4.21012 -4.75143
-1.35561 6.129 -6.35718
-0.285717 0.600328 -6.0654
-1.49958 2.62591 -4.3471
-0.456148 -1.75728 -1.58438
-0.325866 -1.45649 -7.94009
-0.543553 0.42742 -4.86501
-3.9725 1.12503 -2.35739
1.46867 -2.05891 -5.56624
0.205822 -3.03402 -4.23975
-1.31116 1.24025 -2.6082
-0.122628 1.15559 -1.12018
1.97201 4.46962 -3.57697
1.7945 3.72788 -3.07247
2.33479 0.92502 -2.60586
8.54271 1.45316 -4.08294
4.18283 -0.165683 -5.33497
-1.33371 4.86354 -4.67536
-3.40544 4.60483 -6.62006
-3.55337 0.484209 -7.05922
-6.50317 4.71773 -4.53754
-7.40751 0.375871 -3.12723
-4.5296 0.780756 -3.60757
-1.43251 0.130909 -3.08688
0.149289 0.0798798 -1.24168
0.917183 -0.732975 -3.97497
-0.958342 -2.87756 -4.04573
-2.49287 -1.00537 -3.41686
-4.52119 1.0623 -7.37813
-3.50872 -5.042 -5.20909
-2.73049 -3.32807 -4.97819
-0.860224 1.62715 -5.56017
-0.712639 0.382884 -8.10914
1.40756 3.44831 -6.99579
4.58803 0.482985 -2.39994
7.04491 -0.880531 -5.00897
9.05442 -1.23018 -11.3186
9.53265 -3.25723 -12.1327
8.01982 0.809092 -15.1688
4.00128 6.29281 -13.004
7.08181 10.269 -13.4849
9.25855 4.48988 -11.4435
7.05323 3.11104 -4.79028
3.63715 4.51391 -3.17404
0.792393 -1.08072 -4.73843
-0.942869 -0.847541 -2.7102
0.196907 -1.07953 -1.00914
0.036464 -1.58605 -3.18631
0.839811 -0.90235 -1.05958
-0.163348 -3.34748 -5.36074
2.46597 1.03406 -3.25468
1.50531 0.971876 -4.43409
2.01671 -0.083875 -4.19902
1.52305 -4.2593 -3.76644
-1.2429 -1.42779 -1.08089
0.487627 -0.894505 -2.93069
0.468829 1.12316 -1.15169
2.73074 0.103788 -0.332662
1.80348 1.66426 -1.57604
0.386027 -2.60283 -6.18612
-0.952691 -2.23085 -5.85749
1.03204 0.805865 -2.20001
-1.21935 0.38077 -2.45747
-4.60695 2.12772 -3.25683
-2.88842 3.65743 -2.67712
-1.1819 2.59586 -4.45757
-2.25864 2.68362 -6.46619
-2.77585 5.36733 -4.00442
-1.01286 5.18773 -2.53523
-1.99977 7.7407 -3.11654
-2.6388 8.6038 -3.59057
3.04925 5.69435 -2.95001
4.15017 7.62868 -4.27541
1.79866 3.59244 -4.73718
1.26171 3.72976 -5.85713
2.24803 2.13149 -5.78924
1.03914 2.36247 -6.16962
3.46611 5.60272 -4.91047
0.713107 -0.381737 -4.54273
-0.220955 -0.294894 -4.24816
1.16955 -0.304225 -5.43438
0.469662 -1.6212 -2.38411
0.464226 -2.60905 -1.32279
-1.20103 1.68851 -3.25524
-0.701369 0.0268615 -2.58733
3.60759 -0.16103 2.01129
-4.20141 -3.37743 5.47435
-4.27401 -1.01397 5.7419
-3.17066 1.51085 5.6229
-5.63814 2.4074 8.77295
-5.16579 3.24218 8.5258
-1.16366 3.1561 6.05679
-0.0503646 2.54299 1.72422
-1.29044 1.99951 1.86592
-1.36875 -3.19754 3.71044
-0.250048 -0.302467 4.35909
0.688517 -0.485615 1.47606
0.210781 2.3537 2.55743
-3.23802 0.34474 1.44223
-2.51847 -0.0275827 1.12815
-0.812675 2.29584 2.98541
-1.35319 -0.253105 3.97862
-0.238225 0.0606813 2.44154
0.338537 -1.45097 2.09378
-1.69782 -1.45253 3.47298
-2.62304 2.58492 2.37199
2.64206 1.00159 3.68757
-1.10264 1.70999 3.39204
-1.10418 2.21337 5.06033
2.42349 0.436507 8.28667
0.629943 3.91065 2.23512
0.0770889 5.08271 7.0591
0.591713 7.7868 5.15875
-1.73759 7.44271 7.14418
-1.97596 3.19803 8.35333
1.38365 -0.752642 6.43622
-0.103915 -1.63978 1.11127
-0.997103 -0.31363 1.74668
0.909207 -2.424 3.2465
-0.172511 -1.37425 5.43904
-0.24011 -0.31033 4.65631
-0.197237 1.45208 2.12983
-0.110485 -0.613116 4.41999
-0.305262 0.436542 3.6548
-0.871821 0.311089 3.52917
0.913119 -0.989514 2.95253
1.90507 -0.952993 2.35083
0.104717 2.50064 2.93507
1.89047 0.255497 2.13278
-0.984197 1.4854 3.95992
-4.2509 1.84357 2.51683
-0.339149 1.24075 4.69722
-4.24376 2.82781 9.62318
-0.316588 -2.53112 6.12455
-0.714321 -0.200732 1.40402
-5.31976 -1.39807 1.75404
-3.19927 0.140055 3.11302
-3.66335 -1.07586 5.65224
1.09826 0.477639 6.69856
2.05948 3.91858 8.65055
0.315562 5.52779 6.47511
-0.094886 4.87838 1.73826
0.714807 1.829 2.6295
1.25207 -3.85608 0.637103
0.0913247 -3.12511 2.35287
0.786588 -0.413106 0.974917
4.72004 -0.538992 2.51249
4.82116 4.84914 3.88897
6.65602 -0.0984306 4.38093
2.59246 0.219098 1.42493
-0.054278 2.9124 1.14086
0.497733 2.32341 4.37649
1.98403 1.76167 4.76098
0.399141 -0.567911 1.01517
1.09299 -0.473944 3.06736
0.241082 -1.77364 5.29698
-0.880348 0.636202 5.12994
0.100981 2.98324 3.28834
0.763304 0.182958 4.76951
-0.228517 4.41034 6.83864
-2.6348 -0.728185 3.86561
-0.0876843 -2.59848 3.23311
-2.55242 1.77141 2.90934
-4.56548 -0.330326 2.29224
-2.42402 1.48638 5.19414
-2.96663 -1.07971 -0.886923
-3.97394 -3.085 -2.12366
-0.895392 -2.13307 -4.60486
0.143354 -2.83973 -5.03957
-2.36628 -2.33412 -5.18679
-1.91621 0.430575 -6.5929
1.39429 -3.05374 -5.70954
-1.35948 2.73077 -6.1713
1.63769 1.32475 -6.97618
4.32348 5.83655 -6.38263
5.66501 8.00551 -4.6715
1.70518 9.57298 -5.23036
2.99237 5.81983 -4.28978
3.93937 4.68055 -2.35906
-0.760894 3.81603 -3.33429
-0.967226 -0.0404133 -1.50021
-1.90607 1.58846 -3.11681
-2.26114 -0.441994 -5.41226
-3.3649 -1.44865 -6.77634
-4.10174 0.628769 -4.8
0.142963 -1.67366 -2.80534
1.24464 -1.16788 -3.54791
4.61881 -0.300588 0.605708
0.42068 -0.0778993 2.74976
0.855324 -1.00761 2.47162
3.32892 1.68411 2.60425
1.19783 -1.12871 1.14446
-2.77017 -2.43714 5.13382
-0.772727 -3.04761 6.03895
-0.196357 -2.84382 4.84205
1.55561 0.572394 4.07844
-1.50038 3.60884 1.6356
-0.185255 0.75017 2.52043
-0.853666 3.07342 4.96966
-0.282766 -0.164573 1.79899
-1.01366 0.0709964 2.99847
-0.885596 -0.728342 4.97438
-3.15716 -0.987126 4.80245
-3.34194 -0.52553 2.95026
-0.641285 -0.239554 1.42916
-1.28132 -0.00926156 3.24677
-0.967073 -1.04414 3.46505
-1.24565 1.24606 4.58182
-0.677414 -0.126946 1.71204
0.504409 -4.05902 -3.14609
-2.23113 0.37695 -4.32273
-0.504587 3.0977 -2.75203
-0.952084 2.75278 -3.31158
-0.266644 4.81786 -4.89757
1.97659 3.19096 -5.19108
-0.808635 2.65607 -6.00324
2.37623 1.15715 -6.41285
-0.28719 2.76638 -4.7648
1.50808 3.36593 -3.12667
2.80212 1.35802 -5.86011
-0.950852 1.06588 -5.52677
-0.534625 -2.15978 -2.63682
-3.77086 0.162736 -1.74027
-0.481383 -0.948387 -2.30349
0.511826 -1.02106 -3.84684
-1.6425 0.366408 -2.89791
-1.86445 -0.246899 -2.65453
-0.604078 0.703602 -1.77079
-0.311237 -0.294324 -0.553836
-0.0271987 3.57904 -3.3835
-0.775775 1.87472 -5.11289
2.0156 0.000807631 -3.32274
2.76495 0.398374 -2.26488
-0.564433 -0.985378 -4.13092
-0.638266 -0.584756 -2.29355
-2.26816 -3.24011 -7.15051
-0.47499 -2.76731 -5.86839
1.107 -1.65829 -2.46181
-1.28978 -3.81237 -3.85181
-1.10182 3.37454 -3.50108
2.7136 5.04515 -2.64387
-0.617815 1.17574 -4.62339
0.850172 2.12169 -6.76075
-1.73396 0.968286 -4.2399
0.192538 2.60228 -2.60575
0.952688 5.94455 -1.64095
-3.28759 0.584291 -2.97594
-0.414203 0.887538 -1.47847
0.82629 1.62485 -3.22422
-0.00255664 0.387734 -2.49537
-3.66896 -0.679678 1.93968
-2.17291 0.694081 2.28902
-0.570875 -0.879896 4.14194
-0.610712 2.43776 4.54801
-0.137109 -0.652361 4.5178
4.3776 0.0177804 3.10118
0.05968 -5.56549 3.31028
1.75976 -9.83314 4.82943
3.72814 -9.97929 3.76342
3.62319 -5.92809 3.80421
3.09598 -2.34891 7.84064
-1.53436 -4.34765 8.39046
-4.24769 -0.0915064 3.93637
-3.28387 0.320195 1.71612
-0.411821 1.46824 2.89566
-0.066177 -2.52822 4.95301
-0.394697 -0.486279 1.94119
0.907519 0.918372 1.20407
0.713866 -2.51951 4.61012
0.281157 0.814014 3.24127
-2.91243 -1.42024 4.3777
-3.90799 -5.93388 2.82494
-1.88238 -1.98938 3.63793
-2.84646 -2.17095 -0.334069
2.48094 1.1607 -4.62853
-0.809547 0.0791533 -4.89212
-1.48655 -2.24091 -5.8883
-3.12923 -4.80876 -7.57319
-2.06632 -3.60704 -10.8823
0.122104 -1.15827 -7.86161
-0.809768 -0.846948 -2.59671
2.82333 -3.63695 -3.74699
-0.987115 2.34573 -5.55555
-3.32961 2.14741 -4.43133
1.03991 1.43468 -1.86462
1.02158 1.22939 -2.99967
0.749437 0.31801 -3.52724
-2.13898 -0.457984 -2.47167
-4.01692 -0.366758 -2.90141
-3.70826 -0.978549 -1.23157
-4.06367 2.27407 -4.55699
-1.92265 2.91156 -1.95993
1.05333 1.86195 -2.34874
-1.47796 0.698751 -2.81643
-1.46158 1.62593 -5.82118
0.985998 2.90253 -3.54173
0.986669 -0.343312 -2.36666
0.32534 -6.1561 -3.75078
0.248626 -2.69647 -0.9228
2.35442 -4.76215 -4.82333
-1.50405 -1.91072 -4.56974
-0.700138 -1.23724 -3.20731
-1.12367 -0.0293609 -1.83727
3.39361 0.387811 -3.9439
2.99535 -0.271882 -1.15742
1.0238 -3.43991 -1.61759
-1.22922 -4.30884 -2.19265
0.0152108 -1.12083 -3.15118
1.37532 1.56224 -1.22625
4.25637 2.5708 4.84873
3.48606 -1.28416 1.29319
3.83433 -1.72143 0.982402
2.55142 0.409591 2.5726
3.84881 -2.33258 3.13959
0.537459 -1.45971 6.50568
3.35237 -0.636871 4.60727
-0.959134 1.29344 2.73449
1.71158 -0.440654 1.41521
-1.43421 0.966062 2.11521
2.0758 1.56098 2.55632
1.63736 2.61838 2.58222
3.11182 1.09464 3.69699
3.3696 -0.99515 1.80422
2.55866 0.27942 4.11193
0.819557 -1.54363 3.2217
3.20981 -2.5515 3.18859
1.60825 1.21203 -1.08584
-2.57988 -0.355557 -2.13817
-1.7639 0.52166 -1.37378
-1.27749 -1.86742 -1.92488
-0.446312 -2.27283 -3.2649
-4.83741 -1.41449 -2.53924
-2.07797 0.485002 -4.79715
-0.8145 -1.15934 -5.83433
-2.17132 -1.18815 -2.55302
-1.76732 -0.174847 -4.19853
1.90786 1.04481 -1.8266
-0.210116 -1.51582 -2.21868
-0.134226 1.99044 -3.93705
0.310239 1.67868 -0.994387
0.255343 -0.0469951 -1.31444
0.0392538 0.585507 -0.926889
-3.15459 1.24581 -4.36565
4.49666 0.187564 -3.81218
1.95584 -1.89015 2.6079
3.56072 -0.678767 5.36674
0.48966 -0.794674 1.62108
0.496559 0.734707 4.16541
2.52354 -2.82077 4.4574
1.57837 -2.36769 4.61019
0.702859 -0.983038 1.68528
0.498118 -2.42258 2.95744
-1.4263 -1.18912 4.59452
-1.06212 2.07081 2.69337
-0.630861 0.636916 1.6753
-0.859938 0.531186 4.31149
-0.857224 -2.86477 4.4342
2.77861 -3.67517 4.00886
1.26633 -3.72169 4.18696
2.16198 -3.48058 5.12455
0.905147 -2.29995 4.24211
-0.308222 -4.42452 5.67485
4.51753 -1.61807 5.61847
2.75434 -0.953209 3.28638
-0.618628 -0.462618 1.23648
-0.764157 0.724911 1.71093
-1.0801 0.257435 3.00133
1.86932 0.574978 2.20865
1.41374 -0.623673 3.9533
5.13309 -0.369233 4.98796
0.70163 0.551643 2.91659
1.68593 -1.69947 1.33149
-1.88532 -0.141726 1.00615
-1.56039 -2.34087 3.50263
2.34574 -0.537926 5.88375
2.39495 -3.04962 6.65201
-3.07922 -1.3131 3.3629
-4.03256 -0.141376 3.95748
-3.06819 -1.8073 3.64225
-2.05864 -1.24695 4.74549
1.13177 0.258654 3.03907
2.29034 3.85802 1.12449
0.0230272 2.12138 0.814574
0.862525 0.959209 1.2146
3.16492 -2.97583 4.25043
2.02864 -0.519199 2.0496
-1.57104 0.426985 1.33656
