2.2113 0.191235 6.11034
1.74716 1.61603 5.54177
-0.729816 1.56265 3.14606
-0.481912 -1.59549 3.7897
-1.92038 0.215177 3.57377
-1.06847 0.634834 1.81915
1.30251 1.92944 4.95779
-1.96426 1.10723 5.47713
1.40724 2.722 8.60308
-0.633353 -1.22355 10.0027
1.10258 -3.43702 7.43489
3.06294 -0.236092 2.77977
3.93527 -1.27602 2.30466
3.26624 1.73201 1.86875
0.679559 0.201443 1.22834
1.64655 1.41715 3.55609
2.09517 -1.9166 7.97962
1.22825 3.60185 4.72812
-1.38791 5.09045 2.60727
-0.819534 0.758453 1.44045
4.16884 -0.522514 3.41951
1.61856 -1.7714 4.9294
0.82121 -2.5116 2.86814
1.47779 -5.99815 5.00057
-1.44776 -1.8923 3.91924
-0.252054 -1.45155 5.75721
-0.428636 -0.99639 3.32899
3.52246 0.49906 5.81627
3.49225 2.79068 4.27674
3.97682 -0.283827 5.34538
-0.223453 0.174644 3.24528
1.11187 0.462389 4.42027
1.13554 -1.56467 4.09198
3.12252 0.914561 4.78836
7.09708 1.98168 5.63407
6.04038 -0.7697 9.88918
2.7733 -0.754175 9.84845
-1.66834 -4.06306 8.32979
0.291668 0.00878367 10.8432
-5.68206 1.62161 6.14627
-4.30928 3.20507 3.46332
1.48528 -0.266069 3.42919
2.90457 0.693364 4.75379
1.7344 -0.27735 1.75196
1.88503 2.20354 1.02349
5.00414 1.40144 1.72558
4.12788 4.969 4.1686
3.74846 0.938657 2.8824
2.91901 -0.15857 -3.71129
1.36395 -0.89312 -1.37079
4.99545 3.77715 -4.87509
0.0649675 4.2261 -1.27132
-1.92354 1.1903 -2.63844
-0.783878 0.773414 1.34532
-1.76175 -2.1845 5.1768
-1.54969 -0.494247 1.73591
-3.13067 -2.63847 4.43363
-2.20653 -3.85601 8.68824
-2.49812 -3.51625 8.9758
-2.87889 -2.81771 3.16389
0.690781 -5.1735 6.14274
-0.488774 -2.07331 5.31203
-4.42302 -2.05766 6.38863
-3.29729 -5.2807 8.68322
-2.91374 -5.98238 4.33849
1.78739 -1.73833 6.65582
0.66647 -4.32533 4.47979
6.00315 -3.12502 5.97309
2.43757 -0.469574 3.50722
0.0989256 1.35496 1.62376
-2.13358 1.62529 3.12911
0.386615 1.76067 2.91739
1.63164 3.56067 1.71653
-0.529697 1.10612 -0.805875
-0.601648 0.213421 2.8881
-0.421464 -0.472372 -1.99678
1.19567 -3.22163 -3.19214
0.2877 0.647964 -1.9508
0.508513 1.03786 -3.85488
-1.82149 -0.156167 1.76749
-0.0602364 -1.45735 1.48526
1.32095 -0.349959 1.77392
-0.961911 -5.50747 2.53459
0.361852 -0.60104 1.10614
0.902168 0.545533 -2.97567
-0.399284 1.2573 -3.09412
-0.316222 -1.56471 -4.1476
1.06422 -2.02849 -1.19357
-0.925874 -0.269674 -3.99608
-0.626942 -0.270253 -2.08976
-2.20175 2.36181 -2.99131
-1.83014 1.4025 -1.79859
-1.1378 -0.171092 -0.796827
0.957054 1.95052 -1.3605
2.89623 -0.0545695 -4.5356
0.334058 -0.0637342 -5.14144
-0.255336 1.27695 -2.86438
-1.65906 -0.0136442 -3.12729
1.99382 1.83259 -3.14825
-0.479825 0.486628 4.00028
-0.115916 -1.26256 4.64792
1.25799 -0.36861 1.85986
-0.440806 -1.85772 5.20585
1.006 -3.02234 3.34585
0.678085 -1.43666 4.24883
0.434061 1.61588 0.734392
3.63852 1.44539 -3.65438
6.63255 -5.44325 -6.49201
4.55298 -4.44967 -5.6414
0.536059 -1.78185 -5.35149
2.05048 -1.29768 -3.12828
3.23796 2.49959 -1.39156
0.968327 -0.551857 -2.04379
1.98643 0.843736 -3.64525
1.23656 -0.428953 -4.17953
1.83692 0.54519 -0.436795
0.174224 -2.26274 1.8786
-2.42943 -0.226665 2.03921
-0.384535 -0.645525 1.63575
-0.488307 0.190185 2.12582
-0.581233 1.71015 1.04663
-0.696946 0.0681027 3.17075
-4.22878 1.27607 3.09353
-0.0534738 0.744667 0.985374
3.36175 2.05349 4.59636
1.89934 0.348755 5.7079
0.240613 -0.520372 2.65161
-0.904689 -0.960423 5.58096
-0.222061 0.00412018 4.04784
-0.030546 0.0976066 3.75281
1.78109 0.879827 6.62514
-1.25485 2.98759 1.46352
-1.70296 -0.601993 4.14551
-0.823509 0.480794 1.47138
1.49457 0.255811 1.88575
0.227025 -1.19906 3.4318
-0.735621 -3.16284 6.20302
0.711189 4.76797 6.12156
1.68125 0.594447 3.7488
0.0655239 1.12731 4.38555
0.906368 2.97743 5.01239
2.44155 0.569127 2.39864
2.03676 3.31907 2.82873
1.49472 2.92183 1.88548
-2.41304 -0.230283 1.36265
-3.11333 -4.89113 -2.06717
-1.07172 -1.83873 -0.92977
0.490967 -2.58802 1.27767
-0.809875 -0.713508 4.31547
-7.91646 2.21432 4.59229
-4.15877 1.22242 5.57765
-2.8575 -0.913243 3.77317
0.303653 0.771881 2.37391
-0.96594 2.10554 4.65752
1.44179 0.21308 0.771961
-0.472698 0.439465 5.57835
-1.01125 0.520401 4.95011
-0.309192 2.95371 2.06453
4.00691 -0.575824 4.03509
2.43217 -2.10944 3.68071
1.08038 -1.91291 3.60816
-1.54416 -0.227915 5.76475
-0.466419 0.558348 5.67791
-3.29574 1.8984 4.70961
-0.179876 2.14859 4.1099
-0.958999 -1.19392 5.55884
-0.647712 2.11293 2.41769
-2.25741 1.22969 2.99121
-0.332517 -1.51377 1.88098
-1.88974 -3.22122 2.1804
0.592349 -1.33205 3.52101
2.20837 -3.0535 3.28081
1.10411 -0.807428 2.61251
0.00700599 -0.94979 1.88989
2.00297 -3.54321 3.66418
-2.78816 0.0550852 3.21715
0.273434 1.4101 3.41602
5.47171 2.39756 4.62024
3.26278 4.83067 5.71844
4.6628 3.5761 -0.96484
-1.4994 6.12366 -4.11755
-1.31786 2.1325 -6.17815
2.27407 1.91807 -4.23146
4.12067 0.502768 -1.7143
1.83685 1.51307 -4.93222
6.08326 1.3376 -4.76925
8.35457 2.70802 -3.0164
4.81168 3.53269 -2.95603
1.07575 5.67465 -4.28072
5.47102 1.46912 -4.59462
2.55652 1.45457 -3.14718
2.42597 0.454585 -1.89556
1.40464 1.91825 -2.45187
1.58579 0.235217 -2.56484
-0.0587082 0.447681 -2.91404
1.64442 0.489696 -2.60584
1.45055 -0.057053 -7.34956
-2.82196 0.904336 -2.08158
-3.04196 -0.611518 -6.57214
-1.3609 1.81656 -3.15942
-1.41811 -1.35864 -1.7803
-0.715435 0.655959 -3.44303
1.28069 -0.314797 -4.0758
1.18122 2.69307 -1.75473
0.146905 -1.14643 -4.80798
-0.410546 1.23248 -5.97572
1.36609 -1.6747 -3.57217
2.74421 1.08854 -2.37607
0.0360151 2.89439 -1.43523
3.04048 0.693894 -2.40947
0.971766 0.107564 -4.54568
0.10159 2.5784 -3.55424
-0.228599 -2.39997 -3.62018
0.89551 0.666131 -5.0882
1.13233 -1.05706 -4.05348
-0.0750323 -0.224045 -2.441
-0.155802 -0.0781412 -3.60876
-0.87465 0.466218 -3.18386
0.51211 0.205248 -3.29691
0.192365 -0.046062 -1.54739
2.36374 -1.89151 -4.19953
-4.12808 -0.90151 -3.97281
-4.94131 0.0600156 -6.94583
-4.82754 -0.723183 -6.44097
1.4318 -1.79816 -5.9332
3.49403 1.8779 -2.89866
-0.869065 0.0884764 -1.04796
0.29199 -2.12392 -4.90727
1.77075 -2.2232 -4.24062
0.541391 -1.42755 -3.26512
-2.61156 -0.28848 -5.13558
-3.10112 -1.19861 -6.27461
-5.85799 -0.832965 -7.88006
-2.39227 0.0710958 -3.13274
-5.25689 -0.538657 -6.77807
1.12898 1.39094 -3.61706
1.18231 1.2206 -2.37773
1.63652 1.50563 -1.81261
1.21793 0.137715 -3.03248
0.40107 0.256741 -3.50089
-5.93821 1.94049 -4.96928
-5.05618 0.183465 -6.36193
-4.26382 -2.48563 -8.77036
-2.62132 1.02675 -7.32471
0.796766 1.39785 -5.66385
-1.18464 2.29455 -6.72897
-0.104933 1.02524 -3.31522
3.89528 1.28424 -3.33961
2.6565 -1.11424 -3.16115
3.72633 0.503394 -3.60387
-0.383883 4.66134 -5.6182
0.521192 0.341493 -1.10319
2.49311 2.07682 0.685933
1.35542 1.44359 1.8225
-1.47406 1.64244 1.18638
-4.80669 2.53008 1.52795
-2.08051 0.594432 5.22994
-1.87102 1.23019 1.2553
2.30862 -0.366653 3.58552
1.63804 0.127724 1.50114
2.00792 -1.68969 4.89775
1.90604 -0.498297 1.84138
2.30862 1.58484 3.88262
-1.28861 3.31617 3.62397
-3.08277 1.98356 5.85608
-5.25943 2.9766 3.47335
1.41618 1.41798 4.15678
-4.36581 1.59695 3.42883
-1.36363 1.48879 9.26703
-2.79377 -1.98244 3.73886
-3.26222 1.32827 1.46685
-2.63023 2.78332 7.40399
-1.60554 1.62083 5.61931
1.2123 1.52083 4.68236
0.978668 -2.0753 2.28777
0.933248 1.09169 2.95688
-1.45179 2.00433 2.95388
1.36504 1.16017 5.18479
2.61085 1.44328 5.30022
-2.59958 -1.21744 6.64692
-6.58978 -3.59085 7.87382
-5.35749 0.822728 3.54263
-3.78403 -0.342766 5.15172
-7.44009 -0.361366 6.02213
-8.29633 0.259246 7.24094
-5.32623 -3.53369 7.76752
-2.68341 -3.44942 6.14145
-3.63363 -4.15328 5.7628
-4.21678 -4.33465 2.91122
-0.729243 -2.07873 0.450647
0.911344 -3.19516 1.68151
-1.00992 -0.600677 2.57847
-1.5233 -3.47344 5.25773
-3.49007 0.0921567 4.17394
-3.39875 -3.32179 3.82704
-0.601767 1.77831 3.48765
2.17479 0.227839 2.39914
0.516247 -1.17237 2.38598
2.93741 -2.97701 1.49704
1.78844 -1.06523 5.94101
-0.323916 -2.63663 2.64317
-3.36969 0.902244 3.24078
0.18068 -0.593523 5.5197
0.59428 2.55016 5.30308
-0.0847608 1.16798 2.49726
-7.13076 3.68388 3.18601
-3.39306 3.91651 4.49075
-4.07522 5.9037 6.18376
-1.35061 2.2575 3.73056
-2.54895 1.95552 1.64021
-0.317295 3.02062 3.79948
-3.00546 4.17577 2.53537
-2.08835 4.28952 3.99812
-0.32813 5.00898 2.48705
0.26357 4.2877 2.42709
1.51169 3.53978 3.88195
-0.00768011 2.65956 1.81668
1.76308 -0.634349 3.7271
5.12129 -2.50728 5.22961
4.41596 -0.763501 3.17231
2.2924 3.95693 1.51604
0.454742 2.22302 -0.906148
0.938339 1.29199 -2.71122
-0.543796 4.15013 -2.02328
-1.38655 8.48546 -4.83111
-3.52164 5.91452 -4.60587
-6.2798 6.47492 -4.0796
-2.35864 7.95758 -2.08085
-1.32395 5.75803 -9.4609
1.03515 3.52828 -8.75567
-1.81307 2.71334 -7.52098
-5.42806 1.84291 -5.95911
-0.0475534 3.45642 -8.72233
2.03726 2.70206 -5.06214
-0.759587 -1.14182 -3.18214
2.37117 0.499983 -1.84858
-2.65184 -1.28607 -5.00255
-0.457904 0.698021 -2.55186
-0.704764 0.506307 -2.31144
2.03104 0.440521 -2.72683
1.88326 -1.35417 -4.06272
-1.00539 -3.71428 -4.55217
-3.28087 -3.06132 -1.63095
-5.87078 -3.62035 3.98599
-4.00892 0.347767 3.39039
-0.413361 0.365968 3.06423
-1.77304 -0.0525216 4.85935
-0.925755 -0.376289 3.24325
-2.38208 -2.43663 1.4996
-3.18443 -0.400716 2.06036
0.125548 -1.75809 1.24437
0.582443 -1.83709 7.46816
-0.895591 -3.13068 4.55798
0.930782 -0.382275 1.0692
-1.11365 0.927684 3.67252
2.30714 -0.487691 3.03885
1.34076 2.7764 1.34555
-0.953966 2.3676 1.65962
1.9722 0.481712 2.29435
1.45534 -3.75724 2.03054
2.83338 0.87714 3.8836
3.38094 1.82801 2.66167
5.03908 -3.5398 3.64947
0.110389 2.00553 2.97154
0.639 2.38185 -6.5383
-3.32563 -0.537812 -4.23844
-0.619476 -1.48712 -2.03062
0.178055 -0.265654 -4.76623
-0.733127 0.831994 -1.76779
0.65773 -1.46924 -3.37518
1.6436 3.64648 -6.62043
1.19992 0.693499 -4.70013
-3.51782 0.983383 -4.47021
-3.41605 1.70287 -2.73916
-3.37688 1.13385 -2.2305
-1.01152 -0.0568293 -3.32618
0.228356 -4.40935 -2.2282
-0.374709 0.556369 -3.68894
1.77132 1.39971 -2.68877
0.510075 -1.32476 -1.76082
0.625933 -1.09713 -1.9763
-2.40178 0.100955 -3.73199
-2.03872 -0.135584 -5.81648
-2.0768 3.43794 -6.42919
-0.593302 -0.331818 -4.45904
-2.12989 -2.15738 -0.165596
-1.38149 3.55295 3.62061
-1.6513 5.78347 4.38891
-1.44599 0.945855 6.67714
-4.48107 -2.52011 5.59455
-2.67575 0.468232 8.92558
-1.12061 1.95638 8.74063
-0.0704974 0.103881 1.65414
0.575205 0.355005 4.14864
2.96064 0.229143 3.5399
6.56706 -1.0401 8.86925
0.870163 1.85554 3.3678
-3.06013 -0.688427 3.62419
0.700882 -1.49518 3.84746
2.63823 2.22518 7.50076
2.01496 4.57029 3.07192
3.64677 -2.44349 2.31316
0.272058 -2.46852 2.91046
0.923505 -2.24498 1.84999
-0.397649 -1.3428 2.57321
-1.01299 2.49356 2.93897
-0.474373 3.52394 5.51859
-1.57812 2.48463 7.31044
1.28717 -1.69353 6.34974
0.808234 -2.46789 7.21714
0.791356 0.397719 7.34795
-0.818443 -4.44058 6.83429
-3.68039 -1.86939 4.07442
-3.67377 -0.989342 3.44602
-1.33969 0.546946 1.88531
-0.156028 -1.17898 3.23301
1.78681 -5.99168 5.73376
-1.43122 -2.0594 6.73442
-1.11918 -2.2019 3.4066
-2.79061 -1.65638 7.97014
-0.712094 0.604851 4.20705
0.701954 2.13295 2.90396
0.154814 -0.529819 2.11609
-1.04438 -1.78412 2.70896
-2.40511 -2.68401 3.92097
-0.257591 -0.0399182 1.70787
-0.320176 -0.0571947 1.45736
-3.01668 -0.330188 3.09354
-0.727066 -0.36422 4.2003
-0.951612 -2.55582 2.97554
1.60829 -0.979969 3.3064
-3.01084 -3.62232 4.73622
-2.77316 -1.98005 2.15191
-0.49395 0.44982 3.22118
-1.22744 0.387521 3.28933
-4.10189 -1.98505 6.15611
0.0612577 -3.81386 1.67274
-0.782807 3.71789 2.52297
-2.28826 0.136215 3.14009
0.895483 -0.96886 2.09251
1.96888 -0.512633 5.52857
1.9908 2.94982 3.41456
0.687092 5.54258 5.03046
2.36936 5.77891 4.26847
2.768 7.71525 4.34573
1.88908 3.13749 8.91651
0.0140094 5.40088 9.6287
-3.81896 -0.205817 2.73022
3.08937 0.0665136 3.36685
3.26733 1.67608 4.65839
-2.21668 -3.39719 4.48055
-4.89533 -4.07737 2.63417
-6.73998 -5.93407 3.78316
-9.3263 -2.16617 5.35252
-5.6823 -5.0409 4.83243
-4.89978 -0.943393 5.72706
-0.975421 -0.60451 2.27587
0.498071 -0.466148 3.01795
1.75542 0.253155 4.67821
1.10924 2.54561 4.7999
-1.47077 0.787872 1.22207
-4.15833 2.76612 4.71836
-1.95361 1.81094 6.61935
-3.13385 3.2213 7.69129
-3.28382 5.7492 7.99789
-4.99059 5.50278 5.23957
-3.91447 1.60709 4.83765
0.881386 0.379967 3.60811
-1.30082 2.71658 5.67783
-2.68855 -2.05387 2.17161
-0.96685 -2.92375 5.53567
-2.17341 0.944187 4.72578
-4.62824 4.90612 3.40654
-1.07909 1.58582 2.71052
-1.44932 3.45576 1.37631
0.548358 -0.00632037 2.46938
1.07509 1.68423 1.70868
-0.545013 0.204973 1.41267
-1.81127 -3.38902 2.69748
-0.212301 -1.05663 4.14539
0.2356 -1.65167 2.28169
-1.6797 -3.64046 4.79466
0.444519 -1.11732 2.34367
0.0978516 -1.08453 0.762266
-0.16163 2.06568 2.62924
4.28511 3.76389 3.60399
1.84653 0.441902 2.67957
0.177324 0.778396 0.503756
-2.139 1.6013 -1.91614
1.76635 2.95127 -4.61147
-1.61315 0.094971 -4.40273
-1.11785 -2.12705 -2.06664
-1.63623 -0.589221 -6.78524
3.53163 -1.11641 -5.56995
-0.144893 -2.6252 -2.31732
0.67436 2.14097 -1.58047
3.43554 -0.635675 -1.94048
0.354763 -2.86554 -3.32802
-2.06696 1.276 -6.54547
0.377599 0.114984 -2.94527
0.142725 2.11779 -3.425
-1.94966 -0.356742 -3.67441
0.680555 -0.138753 1.2226
-2.90809 -0.766947 6.91345
-0.719004 1.0072 4.74456
-3.08293 -0.250169 1.75553
-1.47979 -0.115866 -0.86755
-2.15581 -1.30911 -1.51064
-2.65911 2.14409 -3.59257
-2.86894 0.271227 -4.14905
-0.0849773 -1.95314 -2.16999
0.077273 0.612951 -1.83453
2.77058 3.05035 -2.1728
-1.32581 3.34055 -3.57868
0.294486 -1.66808 -7.24919
-2.30965 -1.54959 -1.38603
-1.47182 -3.38066 -2.83261
-1.06827 -0.724103 -1.90871
-0.835447 -0.795699 -1.94053
3.04169 3.68079 -1.89927
6.61308 1.61308 -0.930359
4.22517 -0.560468 -4.57969
2.87612 -0.965077 -5.53476
4.36105 -1.4825 -6.35387
6.478 -4.22428 -2.43213
4.77411 -4.02241 -4.49832
2.40688 -1.19716 -7.25916
3.14254 1.5298 -5.85803
1.68804 4.38645 -3.51235
1.67013 0.234976 -2.76421
3.9154 -3.10476 -3.61524
5.66141 -3.23147 -7.08161
4.8012 -7.20793 -4.02365
3.56499 -7.32607 -4.59148
0.733724 -2.80269 -2.21058
0.253535 -2.98993 -5.14004
-4.73287 0.0714628 -1.02413
-3.29338 0.587543 -3.37459
0.19595 0.785947 -1.65399
-3.10976 -0.0817791 -3.79249
0.651749 0.544277 -3.36082
-1.03505 -0.0968657 -3.8224
-0.637157 3.14449 -3.7086
2.15426 -0.20183 -3.96502
0.975159 1.24195 -2.82676
-1.39553 -0.259321 -2.28774
1.14392 1.10887 -2.22236
-2.85448 -2.01812 -3.41264
-1.61684 -2.25831 -2.46763
-1.84352 -2.73541 -0.924539
-1.32654 -1.95358 -6.41526
2.64504 -5.35139 -2.88332
-0.476911 -4.56471 -4.40204
1.80065 -0.977365 -4.25303
1.05812 -3.74133 -2.22429
-1.52768 -3.04599 2.5498
1.77566 -3.88681 -3.73265
0.872597 -4.13113 -3.72856
-3.48519 -3.66038 -2.76266
-4.47618 -4.2699 -3.85741
-6.04466 -1.86093 -3.74623
-4.19275 -0.725284 -3.32215
-2.81468 -1.88078 -4.72221
-6.32493 -1.7647 -4.11101
-6.93673 -1.39859 -6.49403
-5.10124 -2.14926 -2.70085
-2.74401 1.68733 -3.73597
-5.22922 6.62388 -2.10799
-1.23755 5.3951 -3.69706
0.366402 1.5812 -1.56197
-0.737226 1.14973 0.514113
0.182242 0.73602 0.718415
-0.610511 -1.33709 2.28534
1.94623 -0.547853 2.43449
0.149749 -3.34047 2.74024
-4.86209 -0.581832 -1.29239
-2.22174 -1.1575 -2.7975
-0.48332 -0.377236 -1.23517
-0.636073 0.242723 -3.41561
2.90145 1.43794 -1.57074
0.924113 0.271727 -4.19627
0.483897 0.837467 -4.32858
2.64858 0.291099 -2.80571
-0.190433 2.50335 -2.03388
-3.62489 -0.182166 -1.69077
-1.02203 0.0961499 -2.32251
0.350822 -2.76017 -4.01048
-2.05121 0.182143 -7.68905
-2.00257 -0.37588 -2.5556
-5.09985 -1.67462 -5.43593
-6.03637 -5.65174 -6.13665
-0.642683 -6.03246 -6.27642
1.02416 -5.84862 -4.01913
1.09882 -1.10689 -2.59228
0.597847 -0.312042 -1.99287
-2.23876 0.760944 -4.18822
-1.84102 0.0164137 -4.16988
4.30014 -0.232356 -2.77345
2.11805 -1.03461 -5.04248
1.36537 -1.32072 -1.62932
-1.88663 -2.55103 -1.65472
-0.511283 0.0228408 -2.54284
-0.0722869 -1.19772 -3.52657
-1.39863 -0.742058 -2.08125
-1.19618 -0.604603 -5.5456
-0.294309 -5.7792 -2.79192
0.276732 -2.98819 -2.78577
0.271025 -0.395251 -1.44341
0.756547 1.7576 1.14629
2.0241 -0.498668 2.75592
0.517086 0.243558 1.49562
1.89876 -2.83316 2.48416
3.26233 -0.0749224 2.71603
-0.789688 -1.74464 -4.37602
0.449503 -0.558268 -5.86677
-2.24405 4.51513 -3.93685
-0.896754 5.00024 -1.87207
-0.405311 2.27178 -1.27595
0.74489 1.89593 -5.47147
3.95329 2.46314 -4.34587
4.27403 3.54206 -1.85353
1.76925 2.99729 -6.28053
3.00084 -0.0342751 -6.69271
0.64909 0.0596177 -7.13613
0.543269 -1.0844 -5.15567
-2.48864 -0.160456 -3.56379
0.255863 5.87515 -1.5786
-1.72626 5.08889 -3.47712
-1.06873 1.12466 -3.11073
-1.32907 2.80097 -2.22497
-3.55079 2.66554 -1.39915
-3.37349 0.143315 -6.33225
-0.655472 -0.0667545 -2.51195
4.31503 1.62367 -3.28926
2.14314 0.178283 -1.17546
5.24337 3.96367 -5.28403
5.28098 1.6707 0.439496
-0.579622 0.619095 2.07156
-0.558655 0.346078 2.08816
0.889989 2.85866 2.35695
-0.908454 -0.366853 2.92811
-1.19803 -0.776954 0.733301
-1.185 -0.393588 -3.37357
0.445023 1.19425 1.92175
0.123146 2.00324 5.4394
-1.95316 -1.91552 4.85582
-2.14289 0.244516 4.00021
-4.95859 -5.33071 3.72897
-1.35221 -4.31044 1.29447
-0.598729 0.503257 1.27837
-0.262995 3.12358 -4.83213
0.865482 -0.835627 -1.65817
-1.2822 0.645908 -3.33995
1.27447 1.1538 -3.17794
0.943072 1.47271 -2.57899
3.8136 -3.65505 -5.0621
5.1262 -5.70585 -5.61277
1.97704 -2.5241 -11.4718
6.42447 -6.2579 -11.7136
9.8539 -2.60382 -9.76434
5.83765 -0.990039 -9.72579
1.62301 0.0566333 -5.52688
0.791048 -1.78608 -2.34668
-2.87178 -0.765401 -3.02188
-0.845863 1.15819 -1.06634
-1.53785 -0.460092 1.13351
-2.64318 -1.01956 3.2666
-2.95723 1.45666 1.03985
-1.03197 1.90527 1.75209
-1.77023 2.27722 4.2173
-0.0104921 1.45998 4.80497
-0.802752 3.76267 5.43473
-4.63858 5.25189 7.06581
-6.34766 4.24232 2.83532
-3.64031 2.86162 4.33343
0.526467 1.93215 1.07384
-2.74397 1.7654 3.9304
-3.14053 -1.17842 3.05966
-2.12966 1.83764 4.18279
-1.4101 3.75125 3.504
-1.16872 1.97986 2.31257
0.907605 -5.14995 5.4956
-0.933794 -7.25632 4.0015
-2.56409 -7.61861 8.95429
-1.17214 -2.68605 3.57057
1.42913 -1.41288 3.88512
-1.07416 2.67169 2.8271
-1.63334 -2.67797 2.88929
-3.72095 -4.20094 5.51391
-2.92958 -6.39258 3.2795
-1.43987 -6.5 1.31128
0.286959 -2.4284 2.97686
-0.146128 0.0219482 3.87298
1.07329 0.84524 -0.404876
0.778736 -0.236926 3.51761
-0.314493 -0.320773 5.54672
-2.12768 -1.80233 4.26381
-5.25372 -2.61439 3.20356
-0.910202 -2.65422 7.48461
0.601879 -2.26636 9.98452
-1.16911 -1.80477 8.79522
1.25217 -2.23531 6.72993
0.32231 -3.53113 5.06743
0.333936 1.36812 3.99182
0.670566 1.95325 3.58436
-0.235166 1.90258 1.58601
2.0901 1.39412 6.99772
4.70932 -0.667521 8.10979
1.43565 -2.09647 7.12683
0.366909 -2.4604 4.54536
1.62743 2.15175 1.86661
-0.912284 -0.725402 2.33932
3.30977 0.0150239 2.50737
-0.123011 5.28506 2.18169
-0.0517005 -0.1838 2.80786
-2.20437 -3.40912 4.84912
-0.45974 -0.390991 3.80678
1.08515 1.22826 1.03816
-0.292962 1.76783 4.08738
2.45166 0.792281 3.50164
2.28575 -1.02979 1.5686
3.15664 -0.84213 3.58788
-2.75235 -0.0306238 2.39646
-1.23031 0.746084 3.49493
1.04986 -1.36161 5.41862
0.887838 -3.89984 4.19448
2.33587 -3.14739 1.67175
4.26986 -0.146917 -2.12672
0.662116 -1.05311 -2.14175
-2.33028 -1.25549 -2.4729
-5.05596 -2.22514 -3.17863
-4.69996 -5.36496 -5.58086
-2.01407 -0.0136059 -6.77273
-4.00209 0.0777333 -7.22153
-0.195625 -0.681887 -2.13022
1.36629 -1.31002 -3.9808
0.333209 -2.02471 -3.16617
1.22479 -1.37605 -3.01578
1.89474 -2.24226 -4.67441
1.32005 -1.89903 -2.82646
2.12803 1.708 -3.95422
-1.57711 0.321749 -7.0672
-3.84104 -1.77249 -1.90064
-2.56517 -0.156714 -4.14179
-1.18223 0.156504 -1.59387
-0.63352 0.953364 -2.29432
0.218282 0.872627 -4.59713
2.83098 -0.898958 -6.49387
0.147547 -0.999009 -2.96749
1.43045 -3.67662 -2.8952
5.79974 -3.34052 -4.02535
4.15219 -3.59209 -4.78217
1.2497 -2.88517 -4.8555
-3.05676 -3.84476 -5.92721
-5.57844 -4.85537 -6.46155
-2.71431 -2.30116 -6.33098
-1.06451 -2.62582 -3.61725
-1.00516 -1.5244 -5.8254
2.84449 0.355707 -3.81505
4.39816 0.926952 -2.45803
3.53081 2.72361 -3.42729
2.25187 -0.842796 -3.63475
0.570932 -1.86147 -1.02061
0.410651 0.686887 -2.04288
-2.43284 -1.30839 -2.75826
-1.19259 -1.01515 -4.39388
-2.7774 -2.92202 -4.36414
-0.096908 0.786019 0.457724
0.779641 3.71808 -2.0575
-3.04925 2.55778 3.63429
-2.37475 -1.87691 2.90797
-1.75211 0.451739 1.03471
1.72592 0.932562 2.88397
-2.27024 -4.34904 4.47737
1.96298 0.677496 3.00695
6.10082 -4.29706 7.4962
4.75291 0.139856 4.05267
4.72121 -0.821045 5.26529
3.0265 -3.18564 9.23317
5.35727 -2.96034 11.0522
6.47577 0.370599 8.91944
1.63611 -1.12624 4.96382
1.75159 -0.148037 3.18142
0.687072 0.207002 3.90247
-4.43252 -0.34112 2.96445
-1.97925 -0.0737228 -1.91454
-0.976411 0.295959 -1.40643
-0.387785 2.99712 -2.44676
0.248508 -0.716397 -2.99566
0.815192 0.18892 -0.59919
-0.468884 -2.13631 -2.28778
-1.61638 -2.89391 -4.6125
-2.11314 -2.10399 -5.02898
0.739783 1.76235 2.34849
-0.695763 3.43076 1.72207
-0.473303 4.8472 5.2932
-2.78102 3.83612 9.3071
1.81713 1.42379 1.03024
1.22029 2.1977 2.96041
-1.2941 -0.513983 0.253238
-2.47647 -3.28371 2.00397
-0.79885 -0.493165 4.44501
-4.93534 -1.24837 1.84778
-5.10819 -2.73143 5.27768
-0.767038 -0.0744393 8.54734
-2.00147 2.02539 7.76463
-0.713882 5.61862 9.04461
-1.32863 3.44271 9.17961
-3.94022 2.97564 6.4058
-4.63268 2.04911 4.1781
-1.05541 3.10871 6.82146
-0.924528 1.69499 7.10113
0.933634 -0.389103 3.4934
-1.98841 1.95776 2.30914
1.59614 3.3688 4.1849
-1.59269 3.06665 4.50162
-1.94081 7.59493 3.30787
-2.38619 8.08556 1.64087
1.77786 2.42122 4.26457
5.8499 -1.19326 7.42815
0.37277 -0.0326231 6.95053
-2.34908 0.754286 3.2813
-0.243753 0.389997 4.95403
-0.285468 -1.20789 2.87873
-0.0418463 0.171147 0.647701
2.34854 -0.571678 2.8985
2.5378 -0.556178 6.20109
2.95804 -2.7805 6.52444
-1.13248 0.966587 2.86594
-0.504714 -0.614262 2.53295
0.413012 1.07315 2.23231
-0.463151 -1.09887 3.04325
-0.802351 -4.51215 2.49794
-2.77371 -5.19195 1.40216
-2.66769 -2.40429 3.19008
-1.4516 -0.259295 5.18783
1.03605 -1.95168 3.68506
2.74844 -2.79969 2.4113
1.41852 0.395035 1.41254
-2.36226 1.16133 1.50996
2.67229 0.124613 4.14405
1.04149 -0.951952 4.5452
0.00335728 0.278765 1.35075
-1.28513 -1.68443 2.29945
0.519032 -0.784794 1.96744
-2.14932 1.96729 2.84309
-1.36558 -1.37466 1.58442
2.13575 1.47178 5.39201
-3.01742 0.498513 4.24896
-1.56028 3.97401 2.48582
1.76613 5.25619 4.50113
3.57474 -0.495383 2.92689
-1.4255 2.04163 2.93301
-2.72191 2.85061 2.77837
-4.08915 4.02304 3.92357
-3.11067 0.554263 1.83389
2.50985 4.43721 2.15559
-0.893008 2.20654 1.43747
-0.615444 2.20055 3.99479
0.8956 1.57765 2.62451
0.0533974 -0.419418 1.81214
0.660864 -0.407657 -2.52402
-0.350084 0.160455 -2.58744
-2.20685 3.05205 -2.32494
-2.6229 3.38891 -0.794841
-2.25027 1.09424 -7.15063
-1.97043 -1.2239 -5.92715
0.904083 -1.40943 -1.2292
0.0683955 -2.72818 -0.980394
0.481459 -3.96891 -4.40303
-0.410975 -1.44357 -3.1953
0.23622 0.342417 -3.61453
-2.04768 -0.885082 -1.96617
1.96696 4.11501 -4.35963
5.51713 2.84937 -6.15082
5.43876 5.14326 -5.91607
1.92052 2.97048 -6.09265
2.03477 2.79154 -3.49904
-0.993305 -0.841955 -2.33286
1.48743 -1.13882 -5.65384
3.59225 -4.37342 -7.74147
1.04853 -1.36602 -1.32128
0.975026 -0.212624 -1.42532
1.80503 -3.7226 -2.45572
3.10281 -1.57353 0.732402
1.60797 -0.282511 7.29249
4.38872 -2.74663 8.70569
1.04822 0.701384 3.06546
2.77765 0.628271 2.96817
0.19124 -0.0504914 4.13515
-4.53936 -4.01449 4.53636
-8.14802 -5.01355 1.25007
-6.87366 -4.30047 4.79626
-1.40182 -3.89707 5.73269
0.86833 -2.03975 4.46302
-1.30081 -3.83871 5.9253
-1.74159 -0.153756 7.63389
0.230753 -5.20582 8.49658
3.91863 -5.07673 5.24164
2.66909 -6.74117 7.59057
1.98808 -6.5689 5.84371
1.31491 -7.1346 2.39769
-1.5205 -5.81234 3.6872
0.492936 -1.97413 6.82088
-1.7147 -0.962841 5.7145
2.75227 -4.89866 2.82125
-0.329558 -3.78005 6.89113
0.794447 -2.91749 4.92515
1.63879 3.4608 1.93417
-0.482225 2.56987 4.14142
2.38716 4.60704 2.21246
-0.370004 0.904038 1.13755
-1.72799 1.66018 6.86412
3.12291 -0.560316 4.23139
0.616343 -0.744706 2.17991
2.31449 0.357243 2.74472
1.01036 2.16821 2.02619
0.400426 -0.4571 2.81939
-2.74521 0.670261 3.9237
-1.54171 -3.35086 2.59804
-3.04134 0.0259294 1.74443
-1.36346 3.32286 2.37305
-0.408201 -0.0515353 1.64819
1.61677 1.86311 1.65629
0.393616 2.5504 0.976413
2.17346 1.46333 2.95438
-1.11507 -0.537947 2.61658
-3.01711 -2.62824 2.16095
3.19367 -1.10045 4.62783
1.73419 1.28885 1.94839
0.584138 0.17238 5.50065
-0.0488017 1.83079 5.78624
-1.08011 7.03793 3.57034
-4.23277 1.57235 0.6567
-0.235099 2.09914 3.60481
-1.09323 0.727685 2.34551
0.47967 -0.969851 2.54371
1.1784 -3.2701 4.69584
0.424274 -5.21485 5.2452
-0.648441 -4.83311 7.46569
-3.2005 -4.60089 8.22111
-2.65147 -0.62753 7.39685
0.0196612 -2.51117 8.04242
1.80681 1.16107 8.27464
3.36061 -0.207351 3.31963
-0.995076 -0.509237 0.275899
1.66696 2.98108 -1.65783
0.498365 1.21723 -4.15709
0.583373 0.455645 -5.37068
-0.425491 0.828219 -3.21116
1.85741 -1.24645 -4.33309
-3.05201 3.43132 -1.71571
-0.841712 0.815504 -1.16798
0.38033 1.67995 -1.84487
-2.46721 2.68257 -2.45549
-1.93452 1.70023 -6.644
2.64351 -0.520155 -7.03339
-0.658154 -0.595714 -5.58277
-1.20165 1.32092 -3.10811
-4.06946 -0.555263 -5.4249
-5.80978 -0.00690069 -3.53033
2.32011 -3.05218 -2.25219
4.82433 0.909219 -2.06949
0.998102 -1.44204 -1.97752
1.2194 -0.0542639 -3.56203
-2.37695 -2.13683 0.961527
-0.406582 -2.93143 -5.35804
0.582015 0.689323 -2.72582
1.45889 0.166655 -2.35322
-1.44684 0.119085 -1.93419
3.35066 -3.43064 -2.01717
3.13912 -1.65694 -3.53827
-1.73371 -0.153384 -4.31464
-1.27637 -2.8769 -3.80668
0.463597 -0.264375 1.30989
1.28988 0.77154 3.97262
-0.0821389 -1.24566 1.9095
1.58257 -2.11707 2.91031
1.11218 -0.784235 1.95856
-0.416401 -0.624267 5.129
-1.5443 1.06773 8.03404
-1.43877 3.32515 8.79204
-0.665014 -0.848591 3.21463
-2.36551 -1.22944 1.09837
0.546247 1.00145 2.4146
2.76816 -1.10935 2.76123
7.6686 1.16926 3.51273
4.54826 2.55753 5.19065
7.29002 4.19558 3.1043
4.12847 0.898317 4.37702
3.18209 -2.27503 3.09939
3.9351 -0.173153 3.65595
2.72826 -1.86217 4.07859
2.20898 -0.413728 6.61545
2.37899 1.03347 4.88156
0.909714 -1.30776 1.19197
-0.202041 -2.38531 2.67769
0.743247 -3.51159 2.22826
-2.02321 -1.89538 2.11329
-0.979265 -1.97459 4.278
-0.128429 -0.418461 1.16193
1.76997 0.4947 -2.79344
-0.657792 2.45941 -2.11733
2.25181 -3.52222 -3.58312
-2.10293 -2.36233 -1.68717
-3.55037 0.914212 -4.32373
-1.10998 2.88347 -2.43391
0.861516 -3.03948 -1.92234
1.03881 -3.47742 -3.5446
-0.0471616 -1.91601 -1.17696
0.933706 -2.10026 -3.41168
0.0645415 -2.24841 -1.91161
1.85203 2.18442 -3.97147
1.14728 -1.03193 -1.44053
-0.112609 -3.31003 -2.30594
1.70224 -0.684215 -2.41178
-0.122142 -3.45402 -4.31944
0.543914 -0.795796 -3.59701
1.83132 2.58775 -2.58767
-0.967521 1.09709 -4.78058
-3.44042 -1.1949 -4.46116
-0.921169 -1.7509 -1.2067
-2.15094 -0.546713 -2.39901
-0.177666 -1.32373 -4.15786
0.163673 3.0052 -4.52707
-0.537569 -1.7145 1.20052
-2.5979 -2.39895 2.86932
-0.905551 1.03398 1.9306
-1.58476 -0.863565 1.70678
-1.61732 0.904833 4.4546
2.71419 1.72936 0.591576
2.21496 -0.875284 5.09701
4.17149 -0.0608303 5.49897
6.67068 1.20894 4.92062
3.25444 2.06942 7.59933
3.90218 1.39607 3.82201
-1.4059 -2.95674 4.56311
-2.33336 -3.03459 3.52448
-1.57824 -4.09878 4.72874
0.618098 -4.42108 2.29557
-0.031309 -4.26005 2.12055
-0.662598 -1.68421 1.33898
-0.777637 -0.54581 1.74781
1.46494 2.37228 4.41533
2.80439 2.14756 6.26319
-4.48592 4.09762 5.28023
-3.30488 2.86949 6.92307
-2.1916 3.34298 9.65069
-1.86828 2.74565 8.17388
-2.59088 1.48428 3.79651
-2.79994 2.38742 6.39836
-3.04652 4.30458 6.4245
-1.9258 4.1445 6.80875
-2.38487 1.96944 7.94636
-7.12196 -1.26707 7.83135
-5.43536 -2.32666 9.38941
-3.47994 -5.27727 6.18819
-1.3015 -3.89253 1.92878
5.94991 -0.83175 4.20166
3.04555 2.255 5.57506
1.89403 6.2884 7.78908
4.03646 1.3014 6.72739
4.14428 -1.70591 1.62551
3.02384 -5.05048 2.52168
-0.0281263 0.723971 5.79717
-4.87024 -2.72666 8.67546
-2.1556 -3.19375 6.34705
-3.60695 -0.866838 5.62859
-3.61742 -2.74379 6.35323
-5.39179 1.05272 6.69586
0.164156 1.88861 5.0805
4.4804 -0.0975581 3.99229
-0.0477141 0.0188753 4.43073
-0.408227 0.19231 1.75444
-0.774354 -0.540877 3.96552
-1.96088 1.38213 7.62894
0.714272 -0.385555 2.98964
-1.33473 -0.221008 2.63582
1.4483 -1.66016 5.08016
3.76099 -3.11037 0.796103
6.30678 -4.23432 3.92971
6.12203 -7.23109 6.08908
4.20841 -7.88282 7.04909
5.20049 -11.0719 3.6044
3.31393 -9.14877 4.60711
3.1977 -8.73656 2.32461
-0.311401 -6.02279 3.40619
-0.87299 -4.54944 5.68985
0.567691 -0.860617 2.08239
-1.59828 -1.32427 2.55444
-2.36423 -0.665235 3.37388
-4.22801 -2.3117 2.48097
1.79427 0.315118 -1.84959
-1.06744 -0.50294 -3.58541
1.8046 -0.244945 -3.45462
5.97551 -3.47676 -4.08934
0.387387 -0.200745 -3.12716
-2.24229 -2.44142 -3.55095
2.69593 -2.47691 -5.31341
3.76309 -3.50166 -6.53278
5.63307 -5.19881 -4.9035
2.59122 -4.93444 -4.73802
-0.970867 -2.54812 -2.81791
-3.63372 -0.20659 -4.82754
-1.48297 4.13059 -5.73557
-2.34049 1.00716 -6.80172
-0.969472 -0.0785592 -2.84574
1.55511 -1.38378 0.634872
1.874 0.419324 -4.13267
0.987225 -2.19563 -2.14194
-1.49417 -2.08689 2.72292
-0.436411 -0.0819916 1.91071
1.19454 2.3762 2.94823
-1.38429 -2.40998 3.95392
0.457751 -0.586615 1.5766
0.164827 1.36121 2.95017
1.59881 0.52908 3.31647
2.50338 -3.60631 1.50094
3.14994 -1.81515 4.90507
-0.461273 -2.21855 5.88271
-1.50266 -2.41078 2.70687
0.105866 -0.220604 1.89034
0.401534 0.850093 4.27503
-1.04335 0.855567 2.44734
-3.26938 -1.44963 4.65031
-3.5691 0.46418 4.50561
-3.23044 -3.5909 5.06176
-3.12112 -2.81023 5.09622
-0.0637843 -6.67386 3.67498
-2.52495 -2.46665 3.97806
2.39264 0.0988029 4.46443
-0.44571 -2.10221 3.05569
-2.2129 2.22952 2.17229
-2.24761 0.94425 3.69857
-1.5799 2.30154 2.93411
2.85041 5.78793 5.39569
2.898 0.82433 2.00107
3.13246 1.05166 -1.25338
2.57611 4.55085 -0.929564
2.82355 4.15375 4.73638
1.19161 3.22123 4.3659
-2.91727 -2.27102 6.59896
-0.271968 0.437884 4.16303
-0.817181 1.55822 5.06248
-1.48188 1.91814 5.14661
-0.331169 1.25226 3.31295
-2.87519 -1.70275 3.87837
2.61944 0.941743 2.96529
3.0883 1.3745 1.34272
-1.87946 0.0177145 -2.10406
-1.66199 -1.62711 -4.29881
-0.399455 -0.485595 -6.29529
0.680541 -4.1821 -3.22051
-0.837992 -0.76289 -4.8123
-2.08988 -0.0856181 -2.19922
-2.46864 -0.74517 -1.60542
-0.758441 -2.07714 -3.01937
0.689199 0.535694 -3.81956
5.80859 1.41195 -3.48083
3.21018 3.42176 -3.95458
-1.16687 -3.02232 -1.6241
-4.39002 -0.881099 -2.48181
-1.36164 -1.72608 -3.29208
-2.50614 -2.43419 -3.29446
-2.87887 0.720021 -6.53941
-5.9931 -1.82725 -4.21168
-3.13828 0.446391 -1.81736
3.37409 0.108187 -2.20425
-1.80284 0.199919 -1.77164
-0.0776613 1.36876 -2.82806
-2.2535 -0.908632 -3.30895
-1.19875 -1.5403 -5.34082
-1.36242 -0.250236 -4.13308
4.31568 2.48479 -2.40736
3.24221 1.84449 -2.01613
0.240928 4.59784 -2.34917
-2.37966 -2.45882 -2.83677
-2.7851 -0.111909 -3.52177
-0.758157 2.74241 -8.48877
-1.51859 -2.37196 -4.57804
0.33146 1.4108 -4.6067
-3.0167 -3.52647 -2.56826
-0.304235 -1.67435 -4.03347
-0.10719 -0.761102 -4.14217
-1.75587 -1.05697 -1.72133
-1.21634 -0.113501 0.366416
-1.12013 1.27194 -3.56844
-6.09564 1.72838 -2.86431
-1.19537 4.85135 -6.58296
-8.31792 4.97626 -3.64325
-5.01513 8.49732 -1.11731
3.46713 7.86426 -2.19586
1.9493 9.78883 -5.31492
1.70167 7.27094 -5.54642
-0.967877 1.91751 -3.99141
-0.336994 -1.26756 -1.60327
1.06037 1.71987 -1.40261
1.82174 2.0942 -3.58529
-1.34095 1.94283 -0.769852
-3.28578 -1.57536 -1.91152
-0.731219 -0.852736 -5.59037
-5.57303 -2.1892 -6.94393
-3.60012 -4.03053 -4.60107
-3.6429 1.46563 -2.26523
0.813762 -0.305981 -3.33957
2.24199 -1.11204 -5.62225
-4.47526 -0.563365 -8.35581
1.50449 2.10093 -5.26752
-0.328345 1.73927 -4.23827
-2.80489 2.51699 -1.2718
-2.35448 1.20496 -4.08843
-3.51456 2.47793 -4.20964
-0.552393 -2.19159 -2.14614
2.14702 -2.58996 -5.44095
2.16395 1.18487 -1.43303
-1.67053 -0.393672 -7.92937
-1.82358 0.732157 -6.00436
-0.597336 -0.458658 -4.6701
1.77222 0.938095 -2.24993
1.30081 -0.315592 -3.06488
-0.961126 -0.379825 -4.66011
-0.0990652 -0.857315 -1.77091
1.25974 2.52846 -1.7363
-0.313298 3.67675 1.00506
-0.174363 2.34304 4.44925
-2.88939 3.44514 2.58825
2.52817 -4.64816 2.58789
0.905487 -0.574852 1.76965
-0.0642409 3.13661 2.11979
-3.52601 2.22141 5.27376
-0.872674 -0.735377 1.43793
-1.01268 1.31012 1.74626
-1.73859 0.00080224 2.40872
-2.38916 1.25521 4.9427
-1.45979 -0.238952 1.99234
1.11512 0.364308 2.44697
0.291013 0.54189 4.06207
1.98815 -1.36596 5.56028
-0.282012 3.13956 8.33241
-1.75637 2.40578 9.91784
-5.1052 -1.22612 7.14361
-4.68865 1.6922 4.68765
-1.79238 -1.35277 5.18492
-2.54721 -0.351258 2.42433
0.538823 1.63867 1.70171
0.802161 1.28389 -2.0524
-0.537293 1.03621 -6.51314
2.38062 0.319795 -7.32127
-2.66478 -4.28338 -7.6181
-2.73196 -3.98381 -6.01551
0.215426 -0.702868 -1.48946
1.48343 0.567781 -3.13086
-2.16998 0.588457 -7.31281
-1.69783 1.91778 -4.29321
-2.69407 -0.655135 -1.48233
0.445354 0.641132 -1.6189
-0.392914 1.20009 1.86447
3.09427 -0.0985932 3.59702
2.2419 0.871766 2.87547
1.28592 1.3204 3.49855
-0.505789 2.51347 2.08509
-0.72163 0.877785 1.79614
-0.0628124 -3.55678 3.9793
0.600455 1.03541 3.11716
-0.20538 0.417061 2.71748
0.67557 -0.874128 5.23987
4.13884 -5.81117 5.86561
5.58409 -10.6738 4.94423
1.92765 -10.6981 4.18413
2.48 -9.97093 5.92883
2.97289 -11.0879 3.22383
0.269542 -11.9541 5.12653
2.66124 -12.432 4.76901
0.281269 -7.23695 3.63535
-1.79421 -5.52344 3.34665
2.90078 -2.69147 1.46113
-0.318425 -1.21525 3.57658
-1.69356 -0.443643 4.25277
0.484148 -0.261334 2.25119
3.45214 4.16459 3.34792
3.52884 3.6436 2.78443
2.1217 3.17867 2.60353
-1.73832 -0.00432392 3.04006
-0.532709 -0.0952506 1.53156
0.321841 0.983404 3.36703
-1.50568 0.251844 1.46872
-0.427469 -0.267198 3.77096
-0.319646 0.848599 -2.80635
-0.0898011 1.4099 -4.22708
-1.54393 -1.39882 1.02117
-1.91738 -1.41229 1.82813
1.08582 -2.69102 3.52516
0.469312 1.94833 3.33673
2.42284 -1.10326 3.56463
2.14854 1.16187 4.6957
5.11049 2.06218 9.37614
1.35556 1.75403 10.5654
-1.50363 3.69704 7.75855
-1.36133 3.02843 4.6719
-1.50085 -0.568502 1.25802
-1.55008 -0.978509 1.26897
-1.3368 0.0280908 2.24728
-2.33319 1.67536 2.49214
-2.12039 0.0378505 5.3453
-2.38402 2.07566 5.20399
0.980199 0.206857 2.12142
-0.198931 4.68738 6.62516
-2.78819 1.46949 3.85582
2.50234 -2.59794 5.44381
-0.941589 -0.883873 2.59954
0.124947 1.03732 1.90677
-2.78973 5.28951 -2.72005
-2.98653 1.53564 -2.59019
-4.47846 -0.708316 -3.03871
0.985844 -4.35239 -7.28377
1.52315 -0.357605 -2.2242
-2.24502 1.61367 -2.26056
0.666564 1.86333 -6.36417
-4.97974 2.40811 -6.857
-5.21615 7.38772 -6.0278
-1.78675 6.18551 -4.09172
-0.99012 0.534547 -6.36659
2.25267 -1.84632 -3.52897
0.11115 2.39538 -1.00406
-0.981543 -0.377755 -1.61479
1.21775 0.694358 -3.10903
6.74732 -5.19743 -4.94912
1.24528 -2.77579 -2.80699
0.266429 -1.24536 -1.24312
-3.0109 -1.53223 -1.22771
-1.65484 0.640635 -1.49802
0.561893 1.1192 -1.09392
-0.259399 -2.17926 -5.40238
-0.685358 -0.626565 -2.86401
-0.962124 -2.14835 -3.05951
3.52456 0.706659 -4.76481
1.92518 -0.322491 -6.58959
0.217272 -1.87251 -5.3645
-0.774529 -0.391402 -3.78952
-0.321171 -0.703536 -1.5868
-0.538246 2.47384 -2.37632
3.6194 2.88677 -2.82639
-0.103666 0.972264 -2.08664
2.37308 -0.746768 -3.78717
-0.379496 0.547873 -2.18061
0.112339 -2.13829 -2.72477
-0.302006 -3.62266 -4.44908
-2.76801 -0.176319 -5.80648
1.35219 1.17531 -1.65648
-0.933557 0.0571868 2.07832
3.81426 1.13184 2.75787
0.943093 0.729287 3.20672
-1.33256 1.34417 3.26579
-1.48247 -3.11283 5.24471
0.248808 1.60328 5.39814
0.671654 -0.97222 2.03419
0.510945 1.11171 1.05336
0.544899 2.03519 2.14248
-0.624437 4.31245 4.70048
-3.07506 4.57291 3.89814
-3.07673 1.34035 1.87909
-0.476416 2.28914 5.78711
-1.07708 1.18021 3.08744
0.894721 1.32152 3.64851
-0.953125 -0.761547 1.56976
-1.9054 -1.93436 3.97535
-1.29114 -0.891303 2.61917
-1.88903 2.12574 2.48378
-1.04512 1.69612 2.73793
-3.31121 -1.1674 4.13024
0.377739 -1.3584 2.70737
1.43242 0.920621 3.75694
0.346758 0.119956 2.62605
-0.521331 0.956263 0.809855
0.507341 -1.29489 4.55599
-1.70755 0.0600601 2.45772
0.531235 -0.462858 1.1441
0.283505 -2.13191 2.16676
1.27441 -1.12704 0.545154
0.0984233 -6.00733 3.34058
0.951386 -6.75636 3.42005
1.6501 -2.50385 3.23643
-0.503439 -4.47181 4.79947
-1.41119 -0.353929 2.52055
0.377403 1.51087 3.21508
-1.67976 -0.932206 2.28625
-1.80746 -0.433714 2.31594
-1.23782 0.83162 1.22154
-2.38222 1.77445 -2.57973
0.555892 -0.858177 -4.17072
-2.71801 -1.17206 -3.71199
0.952596 -1.69278 -5.50079
-1.79222 -2.4713 -8.4859
-2.56031 0.132146 -4.4536
-5.89518 0.641491 -3.11079
-6.01755 -0.136091 -1.878
-2.23507 -2.5824 -5.58291
-2.69261 -1.73486 -7.39428
-0.0580593 -1.45082 -5.27559
-2.52092 -1.41073 -2.89614
1.21556 -0.612183 -4.08945
-0.325754 0.792318 1.75484
3.519 0.596 2.76774
0.873859 1.42291 2.37641
-0.607697 2.0618 7.05349
1.68844 1.87791 5.94366
-0.883674 -2.57261 1.86849
-1.22795 -1.56356 1.04968
1.51254 -0.720965 4.24204
-3.74528 0.665093 5.19841
-0.223517 -0.366381 3.29228
1.64237 0.262145 5.80583
5.70528 3.05498 2.89744
5.54346 -2.46713 2.64696
3.85815 -3.21755 5.12886
-0.0935455 2.59934 6.7387
-1.65603 2.0614 4.64887
-0.328236 -0.927717 5.19534
1.33311 -1.67915 5.44809
0.866885 -4.01695 5.99523
2.20098 -1.51003 1.65321
0.191969 -0.152934 1.03253
1.68583 1.21145 1.41086
-1.13323 1.36695 3.86025
0.498299 -2.64763 5.02294
-0.97738 -2.00445 5.06184
-2.73196 -3.17807 3.5891
-2.15217 -5.56796 5.85975
0.441589 -4.33455 7.93177
-0.94917 -2.8435 6.13026
0.0571998 -0.321745 4.21175
0.447922 -1.556 4.22102
0.940995 -1.57238 2.39945
-0.0458669 -0.0334282 3.14148
-0.226083 -1.32644 3.06373
-1.69647 -0.614081 1.20922
-2.90996 -1.58095 2.77296
-0.363328 -1.40938 -2.36566
0.817115 0.422218 -1.73849
-1.65699 0.635603 -5.54535
1.41489 -0.741409 -3.18554
1.12534 -0.945809 -3.38032
2.45725 -1.81677 -2.61932
2.43774 -2.12913 -1.73742
0.512185 -0.678886 -1.62512
0.0893691 1.50535 -1.72201
0.546197 0.1301 -2.67156
1.96475 4.13758 -2.17249
0.136019 2.19589 -1.33598
0.864806 -0.0156061 -3.13055
-2.15741 -0.826903 -1.98074
2.73216 -4.40414 -3.11778
0.837007 -0.518915 -1.31499
0.679456 -1.45468 -2.35764
-2.14207 2.51635 -2.9267
-4.88995 -1.7101 -4.88516
0.476335 0.0428838 -4.28454
-1.50389 -1.86093 -5.70177
-0.586614 -0.0548248 -3.20146
2.00421 -3.84048 -6.30498
0.435355 -4.20134 -5.58161
0.391082 -2.8402 -8.80698
-0.970954 -1.26633 -10.3931
-5.75867 -0.857239 -3.3795
-0.693396 3.21785 -3.27487
0.210598 0.299211 -1.42712
-1.08991 -0.0578012 -0.90844
-0.94823 -0.972488 -2.67575
-1.10631 0.841554 -6.69527
-1.66835 -0.936371 -8.0978
-0.866132 -2.4456 -4.84609
-1.72971 -0.351829 -2.12303
-3.34255 1.51813 -8.28215
-6.4275 6.07338 -3.67752
-6.11215 3.7553 -3.2352
-7.91028 1.173 -1.8899
-2.47533 -0.433697 -2.92533
-0.623905 -0.868327 -4.09609
0.6883 1.79495 -2.11222
-0.89603 3.0439 -2.62031
1.85535 4.50297 -6.16807
1.04433 2.41765 -7.36041
1.92888 -4.22643 -6.12135
-0.645322 -3.00391 -3.26477
2.02404 -1.1835 2.69072
-5.20171 -2.86208 2.06456
-3.95695 -6.04562 3.01465
-1.84869 -1.39459 4.86632
-0.43366 -0.636638 5.3751
-5.55374 -1.93805 6.26731
-5.64766 -3.24381 4.46744
-5.92932 -3.39963 5.11143
-2.83582 -3.99623 4.59611
0.0880089 -0.302027 3.15623
0.422872 -0.656521 4.58828
-0.958247 -2.45428 4.89759
-0.0958333 -4.64423 5.34554
-0.368648 -1.56715 4.43586
-0.0738986 -2.39786 4.32232
-2.36394 -2.70427 5.61113
-3.9729 -6.35033 7.87995
-4.91244 -8.94803 5.42278
-3.01017 -2.92804 5.41735
-0.183816 2.70861 6.51345
2.63583 1.36518 2.08915
3.02419 2.3024 0.909083
4.05838 -0.905719 0.248999
-0.38278 2.64097 3.48445
-1.48105 2.93665 3.08276
-2.08948 1.32654 3.00463
2.99731 -2.16083 2.36474
-0.625421 -2.3401 9.80161
-3.0652 1.84273 8.67972
-7.46433 2.04917 10.0508
-7.76919 1.78928 7.80512
-6.02965 5.85247 5.21269
-8.24465 5.03483 5.34632
-5.46867 2.88858 2.39621
-7.28591 2.61207 2.68922
-6.63933 -0.485633 0.74252
-3.57408 1.50379 6.21916
-1.20246 -0.46586 1.90022
-0.262046 -1.49709 1.53179
-0.856235 0.891286 8.08297
0.68208 3.42853 6.28934
1.07425 1.79441 4.89032
1.63121 3.43023 7.12232
1.67315 -1.4326 2.37428
1.24005 1.92678 5.28496
1.63515 2.11053 2.45038
-3.02297 -0.211807 4.76863
-2.08671 1.49815 6.06572
-3.01807 4.65396 8.56841
-1.42884 9.51323 6.92384
-3.65433 7.10215 4.8818
-0.838431 4.49574 5.2355
-3.7737 4.67221 5.67151
-0.715419 4.13669 2.46012
-0.535191 4.99105 1.10478
-0.052202 3.33773 3.26365
-1.83835 3.98052 2.33276
-1.69833 2.8394 3.61558
1.12565 -0.800765 5.95671
4.94863 -0.556518 3.90211
2.91199 -2.51967 3.74817
0.377838 -2.17722 3.57057
-0.577164 2.39584 3.17689
0.739062 -2.63096 8.6857
4.48442 -5.16887 3.35076
3.86096 -3.65824 3.7585
0.887261 -4.09192 3.20108
-1.9296 -2.43985 4.13963
-5.16764 0.390088 4.84813
-5.7893 0.311799 9.62065
-3.62967 1.45752 5.81161
-0.993025 3.49555 3.85097
-1.10403 -1.22682 1.28989
-1.41316 -1.88193 4.70522
-3.32069 -3.18812 4.03336
0.817496 -1.1523 5.13748
-0.942585 0.348708 1.38626
3.10418 -2.4688 3.30116
-1.23146 -1.16811 1.89992
0.316467 -1.20137 3.28662
3.10925 1.53086 3.19917
2.22512 1.37196 1.64174
2.49437 1.48092 1.03151
0.226469 -0.144763 3.04929
2.25766 0.517092 5.57371
-0.24214 0.0302973 3.73693
2.39787 -1.70437 5.32833
4.92808 -3.1302 7.17655
1.00975 -0.73646 1.22057
0.15206 -0.752214 1.84306
-2.35654 -2.17492 4.75328
-2.06608 -3.35952 2.24155
-2.30101 -0.712784 4.2138
-0.877419 0.963406 3.0071
-0.787597 -1.57197 2.35279
0.267004 0.730596 2.58222
1.64945 0.433501 1.91212
-4.17118 -0.118683 3.70948
0.133674 1.42175 1.012
1.74574 4.42741 1.84286
0.263718 0.697839 -2.79707
0.339524 1.09418 -1.15279
0.689882 0.19532 -3.30465
-0.823842 0.499331 -2.44462
-1.23066 -1.64179 -2.9837
-1.47169 0.930041 -2.76648
1.7318 -1.44735 -2.75322
0.101021 -3.26373 -2.34323
-0.642648 -1.06348 -3.9763
1.90014 1.09357 -3.52722
-0.299241 1.09925 1.25254
0.45317 1.37574 3.44103
-1.77559 -0.534251 -2.2758
-0.338902 -2.97563 -1.3853
-4.16408 0.421827 -6.32676
-2.38683 0.0272299 -9.33604
0.0926873 -0.884021 -3.8323
-1.03417 0.363641 -1.72954
-0.235213 -3.33815 -3.22995
1.26948 -0.964803 -2.09749
1.29542 2.45814 -3.0105
-0.0991747 0.781973 -1.59371
-1.44906 0.559433 -3.87571
-3.70427 1.03367 -2.04439
0.0967201 -0.881278 -1.89428
-0.710687 -1.13961 -1.193
-1.18273 0.120318 -2.95012
0.72186 5.1435 -4.69994
1.08456 5.01382 -7.35355
2.55952 5.33506 -7.48346
1.25692 0.857509 -3.77484
1.09188 -0.785942 -0.242358
-1.02681 0.778353 -2.08059
-2.16835 -2.53844 2.76222
-1.03749 0.344539 1.91707
1.35378 0.0490536 0.55782
0.101235 1.3943 -1.77221
-2.4638 3.38768 -2.74204
3.96211 1.30511 -2.4587
1.62324 -2.45737 -3.45598
2.11813 -1.61984 -2.72639
0.633958 0.690916 -2.68584
-1.25452 -1.28768 -2.0059
0.162473 -4.31785 -3.54791
-0.947492 -5.08959 -3.7388
-0.522182 -0.984741 -8.30394
2.13508 -0.467015 -5.88926
4.17086 0.164251 -5.91577
0.689009 -0.442224 -5.0602
2.83376 -2.13431 -0.701983
0.622024 -0.50455 -2.72396
0.0980682 -4.60607 -3.16427
-2.85995 -4.28137 -5.07817
0.196127 -3.26905 -3.49925
0.861137 -0.785742 -3.94197
0.37096 -2.39706 -2.32964
3.12475 -2.07241 -3.61393
-0.738599 2.50799 -6.11045
-1.87142 2.19016 -3.27302
-0.323319 0.709539 -4.61825
1.49114 1.56303 -3.15932
-0.345363 0.0246608 -2.18311
2.33367 -1.4552 -1.38838
1.0291 0.323695 -3.50558
1.14092 -1.8785 -1.3403
-1.0242 -0.138103 -2.44069
0.141407 3.31687 -4.10393
-0.163474 0.150305 -4.82698
-3.02501 1.72514 -2.96856
-1.57559 1.64125 -6.54397
1.5019 0.859247 -4.40776
2.69514 -6.57796 -3.9395
1.73409 -4.7005 -3.51726
0.937024 -2.1676 -2.56643
1.73723 -1.24111 -5.16399
-1.08508 1.31061 -2.36917
-2.03363 1.78209 -3.46238
2.82602 2.74497 -4.4735
2.18501 -2.02404 -5.04219
1.64914 -1.34443 -1.46793
2.3601 -3.92396 -2.18295
0.552204 -3.46352 -3.13612
1.15807 1.21841 -2.48258
0.985571 3.99148 -5.16771
0.316056 1.59023 -2.03512
-0.0429519 -1.18235 -3.91033
-0.505041 3.57427 -2.78713
1.30416 1.22797 -2.81103
-0.66849 -0.978341 -2.50753
-1.55026 -1.37194 -2.52778
0.425283 -0.154563 -2.48687
4.25689 1.54835 -6.19144
5.94292 -0.145715 -7.95063
5.42688 -0.205948 -4.2553
3.94767 0.460945 -1.3684
1.82204 1.90359 -6.00448
1.62241 5.83904 -5.16526
1.65355 2.31744 -3.65342
0.780455 5.24485 -7.82961
1.78421 3.49741 -9.96876
4.36047 -2.94395 -5.86646
2.79185 -3.1543 -6.37469
-2.00847 -0.163128 -6.83426
-3.71774 -2.07874 -2.93244
-5.89119 -1.36902 -6.09058
-6.38263 -4.39938 -6.21306
0.521547 -6.01246 -4.48708
-1.02251 -6.76214 -9.16652
-0.93997 -0.262796 -4.74087
-1.76262 -3.81674 -2.25989
-0.251747 1.15444 -2.06031
-1.19816 1.69207 -2.23694
-0.722531 -0.506047 -0.877951
-0.528108 1.80561 -5.8381
3.04507 1.89195 -5.45362
-3.14197 3.35496 -6.04164
1.39766 0.558633 -5.42915
-0.984907 2.65204 -1.05654
-3.30946 -0.703351 -4.20698
0.629489 -0.724202 -3.94845
0.900712 -0.946917 0.486379
-2.33974 -1.29859 4.55493
-1.94523 3.36892 2.74403
-3.03396 -0.725465 -0.997683
-4.58044 -5.22287 -3.19937
-6.46602 0.0602473 -2.1573
-3.15991 -1.95612 -2.1389
-5.11309 1.70344 -1.83943
-1.05907 3.53713 -2.46605
-2.03774 4.53261 -8.22019
1.24707 -1.13596 -7.39757
0.954871 0.689828 -5.35371
0.500142 -1.54235 -4.2985
-0.0496246 -1.12263 -1.78105
4.55682 -1.23742 -2.51566
3.70348 -0.271947 -7.8072
2.35782 -0.8039 -4.44583
0.902674 -2.45073 -4.0868
-1.79112 0.575831 1.38304
-3.804 3.52179 1.74448
-1.94296 1.54511 5.0181
-0.143912 1.73244 3.53901
-0.194597 0.688731 0.560947
-0.459534 -0.359423 1.17445
-2.9934 -5.75339 6.5397
-5.08911 -5.6453 3.54135
-3.14533 2.14415 5.08784
0.777449 3.55056 2.73332
-0.950816 2.28187 -3.85563
-0.545082 -0.574533 -2.76245
-0.209817 2.17877 -6.91112
0.910072 3.64748 -4.49128
3.339 3.48627 -2.72737
0.54817 2.04205 -1.65754
1.59591 -1.09303 -0.378616
0.375245 3.91497 -4.98147
-2.01353 0.93098 -3.76626
0.864959 -0.304598 -8.476
-0.233999 2.58333 -1.81835
1.16436 0.257776 -1.79681
1.6226 0.692517 -2.08236
-0.51517 0.532118 -2.11851
-2.90371 -1.76456 -4.2158
-0.0747844 0.213072 -0.867887
-4.60885 -2.04047 -2.30178
-4.51907 -2.85824 -1.97625
-5.54757 -2.08031 -4.96189
-5.02092 -0.967654 -5.08607
-4.55635 3.30989 -4.69517
-3.46992 1.88447 -2.8878
-0.641948 6.99444 2.55615
-2.0801 -0.162892 4.52143
3.24194 -2.77218 5.82379
-1.08841 -2.33693 3.56019
-1.4099 -0.994093 1.2853
0.24114 -2.0493 3.51408
-0.278886 -5.68631 3.05613
0.63171 -2.39181 1.74268
-0.0743974 -1.93026 3.11971
0.225848 -2.75157 5.3903
-0.60188 1.02431 4.53292
-3.06003 0.916983 -0.713371
0.690163 1.01513 -5.05848
1.55812 -1.48433 -3.48376
-0.0145417 -1.64705 -2.84953
3.66179 1.81402 -3.26531
0.23104 -1.14174 -1.94076
1.46076 -0.228793 -3.70688
4.48707 -3.01124 2.34786
1.42163 -0.652859 2.12454
0.43201 -0.573345 -1.30519
1.01676 1.96461 -2.60936
0.439196 1.95991 -1.88851
0.137058 1.61253 -2.28366
0.901416 1.93035 -2.93748
-0.981681 -0.0184505 -1.66817
-0.692246 -3.49526 -4.6047
-1.75031 -0.651788 -2.57716
0.914685 -0.441357 -3.77649
1.78437 -1.52735 -4.9499
-2.8888 -3.76474 -3.97492
-1.34617 -5.76823 -3.80829
-3.9623 -2.67058 -3.89232
-0.967074 -1.30851 -4.00838
1.12796 -4.81735 -4.46593
0.903822 -5.26391 -5.4317
0.644806 -2.56762 -0.88387
-0.869562 3.7576 -1.72233
-3.97713 3.76523 -6.59804
-6.51274 5.86934 -4.0553
-1.95909 6.22268 -9.13478
0.567881 3.15856 -9.37624
2.53194 3.31021 -6.45836
-0.773288 1.94723 -4.79162
-1.87525 1.37824 -6.4603
-1.52738 1.6787 -4.06656
1.57187 5.37036 3.66588
1.403 1.49554 1.98364
-0.0739642 0.0495358 -3.39575
-0.986157 -0.779459 -3.79654
0.967478 1.53652 -3.97152
-0.0648914 3.98213 -4.83913
-2.98177 4.12143 -2.22008
-1.24944 -0.496455 -6.27002
0.159463 1.29214 -4.95068
0.866007 0.256455 -3.6344
-0.946052 0.142306 -3.67533
0.696762 -0.833916 -4.02628
-1.33109 1.18105 -4.16088
2.91172 0.984214 -2.85515
5.25481 1.18074 -4.3224
3.67633 0.482058 -1.20149
8.04943 -3.75857 -4.18695
4.24686 3.55058 -6.05988
6.08536 4.56828 -4.96734
6.93616 6.51042 -4.97749
4.82462 6.60853 -3.17344
2.81544 5.17274 -5.82359
2.36938 5.58998 -5.42384
4.39084 3.5249 -7.76457
1.65596 0.172258 -0.990331
0.079289 0.523616 -2.11407
2.51529 -2.68084 -2.2402
3.15751 -3.16008 -4.53107
3.05076 -2.60218 -4.55893
3.16572 -1.13838 -3.20243
1.77344 0.902682 -6.16065
1.02719 0.632005 -3.73344
3.3973 -0.841535 -3.51517
-1.88616 0.172537 -4.5499
-6.16194 3.51916 -3.78654
-6.47427 3.43509 -2.59816
-11.8694 6.01038 -3.16603
-6.15889 7.83609 -4.45051
-4.2359 7.00424 -4.21912
-2.04245 5.84567 -1.56362
-3.29467 0.0198686 1.68501
-0.4575 -2.3356 1.22815
2.02214 0.354674 0.910136
3.00843 -1.17351 1.57957
2.41394 -0.401881 1.57856
-0.173871 -1.64736 2.64294
0.410781 -0.610934 2.4359
