0.0558058 0.779035 -0.850074
-0.456711 -1.17043 0.367754
-0.348015 0.146718 1.26741
2.15981 0.9564 -0.690127
-1.40236 0.665379 -1.06172
-0.181512 -0.556001 -0.288691
0.180908 1.57169 -1.52013
0.940585 -0.859851 -1.92503
-0.248051 -0.313517 -0.654548
-0.260791 -1.1456 0.414925
-0.540875 1.21293 0.428528
2.21657 0.29028 -1.45603
0.00517371 -1.13115 -0.941193
0.646945 -0.38755 -0.401665
-0.0469453 -0.833911 0.382679
-1.31926 -0.958831 -1.75326
-0.00677979 1.20373 1.28608
-0.0412078 -0.32695 0.472675
-0.23537 -0.460731 1.02145
0.00877339 -1.89133 0.853186
1.56842 -0.278689 -1.08698
-3.12923 1.71336 -0.199636
-0.336239 0.909295 1.78352
0.00264357 -0.0349118 1.51403
1.06343 0.0540872 0.871782
-0.226308 0.566733 0.124949
0.622965 1.03488 0.955859
-0.66973 0.756255 -0.554469
0.526874 0.565097 0.324929
0.942942 0.211437 0.704292
0.59869 -0.151629 -1.07033
1.56457 0.93997 -0.0227862
0.220283 0.292731 -0.98316
-1.5291 1.4599 1.29791
-0.994799 0.760702 -0.278574
0.733084 0.691796 0.14657
-0.668629 0.887124 -0.316527
0.108018 1.19969 -0.144336
-0.207136 -0.265002 -0.103128
0.435181 1.81981 1.97357
-0.532178 -1.68271 -0.592992
-0.607138 0.780612 1.0343
0.771842 0.250213 -0.174776
0.129503 0.150895 0.930457
-0.41781 0.459581 0.570162
1.70855 -0.434904 -0.243108
0.401827 -1.47823 0.493976
0.595581 -0.197588 -0.305522
0.517119 0.679694 0.831629
-0.306491 -0.192899 0.698161
1.1868 0.26104 -0.953545
-1.63795 0.873891 0.0851677
-1.08592 -0.713874 -0.203746
1.1718 -0.317072 0.410889
0.2555 1.21154 0.328376
0.0156572 -0.838698 0.0561219
0.518474 -0.749868 -0.801383
-0.755038 0.639006 -0.0723075
-1.70408 1.88999 -0.325548
3.53575 -1.08961 0.0450106
0.462756 -2.80046 -0.902468
-0.535685 -1.70279 -0.949194
-0.379824 -1.10601 -0.87798
-0.790305 -0.416791 -0.135755
-1.37774 -2.12906 0.0799481
0.403387 0.378781 -1.40847
0.405414 -0.987808 -1.64833
-2.85621 -1.09466 0.912124
0.399415 -1.1015 -0.964852
0.483797 0.778562 0.444787
-1.65162 0.35945 1.34726
-0.0231711 -1.26476 2.06687
-1.41723 1.37317 -0.582263
-1.34538 0.875082 -0.872726
0.0419896 0.164854 0.398
2.41932 1.86631 -1.34254
0.817196 -2.74666 -0.39346
-0.0501421 -1.48265 -2.81575
0.0316418 0.22287 -0.122295
-1.14617 1.42409 -1.95151
-1.34915 -0.652695 1.45241
-0.984844 -2.62202 -0.147638
-2.57054 0.843327 -1.26078
0.256884 -0.318868 -0.492324
-1.34683 -0.948026 0.165842
0.8969 -0.800331 -0.0834702
-1.20295 -2.38506 -1.69778
-1.76661 -0.941532 -0.641183
-0.337811 -1.39859 -1.15067
0.2385 0.342728 0.0967857
0.00526879 2.1227 -0.330698
1.52475 -0.522273 0.584953
-0.641772 -1.50823 0.722516
-0.343953 -0.20774 -0.0295389
0.659804 0.515795 -0.718072
0.440437 -1.18684 -0.271506
0.310306 0.539118 0.178979
-0.415138 -0.423369 0.511365
0.995871 0.261826 -0.865979
-0.8555 -1.67182 0.323291
-2.76295 -1.00207 1.55731
0.339391 -2.3213 0.584286
-0.247598 0.0365994 -0.642657
-2.49288 -0.322526 -1.55413
-0.119906 -0.139148 -0.551394
-0.0831436 0.210924 -0.449178
0.314641 -0.266001 0.00439122
-1.42616 -1.29868 -2.20953
0.858273 1.04678 0.062664
0.083943 -0.565611 -0.0480224
0.0421373 0.213874 -0.858629
1.69395 0.840048 0.908849
1.09256 0.537371 -1.17575
0.965083 0.722556 -0.533727
-0.394192 0.263074 -0.628321
-0.279282 0.147596 -0.0349727
0.648592 -1.06537 -0.344521
-1.02702 -0.715413 0.398527
-0.448336 -0.192199 -2.59144
-2.22663 -0.297676 1.59393
0.298793 -2.61153 -0.357526
0.739678 0.0896694 1.71164
-0.0138576 0.0960887 0.0784648
0.92799 2.17825 0.13868
0.293457 -0.852068 0.288742
-0.248826 0.695137 0.834382
-0.147661 0.169187 1.82111
-0.207547 0.762908 0.400703
-0.663919 -1.00076 -0.0836473
-0.123896 0.715366 1.39035
0.563654 0.0891499 0.823556
0.898908 0.559018 -0.364372
-0.419733 0.141577 -0.617513
0.92667 0.549149 -1.6693
0.340139 0.675679 -0.129677
0.891717 0.722002 1.56152
-1.96247 0.294551 -0.707937
0.504503 -2.0185 0.278252
0.569864 0.31918 0.282531
0.492454 -0.963055 0.398671
-1.30484 -0.334204 -2.0933
0.755347 -1.04742 -0.693171
0.37318 0.199886 -0.302443
-1.09792 -0.664109 0.680165
0.192724 -0.0477019 0.00887483
-1.02699 -0.100453 -0.80995
0.772001 -0.512601 1.12142
-1.13687 -0.473434 0.295124
-0.978614 0.578954 0.658625
1.40407 0.107262 -0.418887
1.07303 1.19794 -0.731459
-0.550974 -0.684378 -1.00951
-1.26574 0.523031 0.63294
-0.00183892 -0.690537 0.993948
0.351376 -0.638238 0.236903
1.37505 0.935886 0.154454
0.614102 1.70445 0.637924
1.1976 -0.264592 -0.522777
-1.32056 0.577015 -0.39404
0.90529 0.426152 -0.212393
-0.53475 -0.806155 0.987682
-0.195758 -0.444151 -0.177536
-0.43934 0.100497 0.354062
-0.621698 -0.378943 -0.227602
1.27448 1.86706 0.489247
-0.751412 -0.588358 -0.83783
-0.892534 -0.473383 0.0148742
-0.495532 0.740757 -0.140884
-0.884638 1.96137 1.19067
0.913447 -0.893951 1.07019
-1.41434 0.307093 0.881308
0.452664 0.227961 0.335906
-0.446891 -1.15663 0.87231
-0.844442 -0.503437 -0.237256
0.337883 1.14494 -0.457376
1.53678 0.106779 1.52835
-1.57022 -0.550541 0.699168
-0.429001 -1.62653 0.373244
1.13804 -0.229452 -0.362911
-0.825935 -0.0699902 -0.208388
-0.792072 -0.549069 1.86181
0.516935 2.38212 1.12842
0.818389 -0.23598 -0.516755
-0.253581 0.172401 0.954295
-1.6745 -1.76907 -1.76234
1.17522 1.06274 -0.323786
0.737023 0.310223 -0.126558
0.111029 0.173139 -0.0692891
-1.07575 -0.358094 0.00364551
-0.637441 -2.07478 -1.09878
1.94725 -0.0984985 -1.37769
0.968103 -0.455352 0.298886
-0.302652 -0.739771 0.400153
0.238446 -0.900407 -0.640182
-0.665512 -1.32129 1.96159
-0.90614 -0.142566 0.806962
-0.0870196 0.12688 -0.748963
0.68261 2.42188 1.21667
-0.333473 1.06066 -2.45599
0.865603 0.121222 -1.10741
-0.777923 2.05816 -0.105955
-2.0274 3.48709 -2.62139
-1.77591 2.29457 -1.21684
-0.289786 -0.312025 -1.4842
0.828884 -0.296611 0.0771743
1.42846 0.781678 -0.781306
-0.610791 -0.301962 -1.21108
1.13599 0.55539 0.71355
-0.0795659 0.626163 1.22019
0.427855 1.04199 -2.22089
0.067864 0.455239 -0.102875
0.135514 0.0372509 0.378249
0.646759 0.121558 -0.68425
-0.0401365 -0.400896 -0.189949
-0.642862 -0.266615 0.259586
-1.89924 -0.823059 -0.0155246
-0.404273 -0.582942 1.47066
-0.142898 0.166921 0.152081
-0.0302701 -0.943806 -0.781788
0.0449323 1.53195 -0.247542
0.226225 0.128374 0.304372
-0.521458 0.98952 -0.46076
0.782365 -1.39991 -0.237143
-1.11574 0.592216 -1.2926
-0.376942 -0.310219 -0.672349
-0.387089 -0.969352 0.0924068
-0.505667 -0.263865 0.797892
-0.0515074 0.437898 0.0673119
1.14583 -0.441404 0.656248
0.726261 -0.969264 1.22946
0.633512 0.423522 0.179381
-0.176374 -0.00924404 0.905423
0.335404 -0.740989 -0.617851
0.224629 -4.04029 0.0895378
0.934153 0.153049 -3.24508e-05
0.545627 -1.8688 0.826389
0.556282 1.25797 1.03544
-0.586179 0.372177 1.00347
-0.223992 0.06967 0.0447423
1.12525 0.411922 -0.779099
-1.27893 -1.81202 -1.80126
-1.67456 -1.04792 -1.88719
-0.615175 -0.275907 0.555997
-0.671181 -0.875871 -0.751771
0.393332 1.59379 -0.229679
0.0213104 1.17706 -0.636308
0.681532 0.035903 0.2451
-0.851928 1.08819 0.684051
-0.2028 -0.319937 1.38213
0.507099 0.368303 0.0468208
-0.581555 -0.341976 -0.157647
0.130241 -0.886507 -1.05717
0.380612 -0.239452 -0.0640047
1.41116 -0.168785 -3.31397
0.425064 1.65709 -0.656956
-0.357831 0.703938 -0.518253
1.002 -1.26012 0.0464196
0.208109 0.298174 0.245176
1.32006 -1.02521 -0.333083
0.555512 -0.366022 0.141908
-1.10435 0.104724 -0.0955525
-0.309269 -1.5479 -0.166227
0.258146 -1.16981 0.699435
-0.0297141 -0.394403 0.0045674
0.429514 -0.325162 -0.396973
0.276105 -0.384923 -0.516956
-0.108703 -0.624879 1.53547
-0.0530655 0.424964 -0.100907
2.29266 2.80516 -1.45561
1.19694 0.287387 -0.284897
0.892338 -0.5418 1.48702
-0.146583 -0.91274 0.117894
1.0131 1.81378 -1.46683
0.115746 -0.00049224 -0.0412733
-0.218937 -0.732116 -0.322995
-1.09832 0.222058 -0.795147
-2.08113 2.61737 3.42824
0.26007 0.68558 -0.618482
1.11986 0.0813009 -1.31165
-0.00539706 -0.972987 1.23573
0.00263588 -2.6408 1.4026
-0.560715 -0.746498 1.80055
-0.161727 0.126168 0.347971
0.0433705 -0.578601 -0.327187
0.654913 -0.245717 0.611453
1.29717 0.404389 0.182873
0.804103 -0.445397 -0.920722
1.1415 -0.356257 -1.61252
0.744693 -2.17136 -0.820114
-0.493878 -0.567592 0.262543
0.281156 1.17705 1.81425
-0.434929 0.614821 -0.425907
0.174965 -2.3426 0.102135
1.0847 -1.29906 1.44871
1.59474 -1.22926 1.33191
1.59197 1.53232 -2.16118
0.549848 -1.24438 0.395087
-1.11282 0.569071 0.651739
-0.0416233 0.24157 -1.00727
-0.138196 0.165239 0.399305
0.0901895 -0.176856 -0.238975
0.561169 0.400142 -0.179466
-0.00353254 -1.1403 -0.643425
1.04903 -0.848132 1.86818
2.04904 0.315721 0.551362
0.433001 -2.43648 -0.237141
0.921969 0.583277 2.26569
-0.942338 0.0305567 0.283206
0.260806 -0.325727 1.36068
-0.163474 -0.109973 -1.15246
-0.529536 0.110767 0.788855
2.602 -1.05472 0.698723
0.176715 0.760305 1.02579
0.414681 1.58719 -0.0325544
-0.598705 -1.95011 0.501347
0.0996128 0.242036 -0.0275425
0.0251977 -0.766502 0.252637
-0.286342 2.094 -1.80183
-0.768455 -0.975525 -0.0733793
-0.442207 1.14164 -0.363078
0.412811 -0.1343 0.244343
0.156691 0.0102942 -0.0475055
-1.93407 1.5016 0.106955
-0.95337 0.544729 2.22315
-1.44599 -0.282465 -0.700575
2.02126 -0.718694 -0.882566
2.00119 -1.23362 0.819001
-0.154546 1.35719 1.40196
0.887836 -0.131709 0.410904
-0.275068 -0.0126973 0.0753125
0.542079 0.42696 1.05647
0.701147 0.252005 -0.467156
-0.00819759 -0.873031 -0.968295
0.266814 0.553368 0.14223
-0.861248 -0.512748 -0.259457
0.764634 0.865066 -0.260405
0.532455 -0.807036 0.329786
0.121338 -1.77978 -0.0980601
-0.922419 1.00446 -0.853104
-0.50331 -0.0969085 0.0623165
0.302046 1.30685 0.712226
-0.351977 -0.377742 0.792755
0.164741 1.90035 -0.207082
-0.0727569 0.102548 0.606482
-1.01588 0.488194 0.998064
-0.166363 0.384493 -0.67008
-0.423265 0.955459 -0.595197
-0.293465 1.20371 0.751672
0.303557 -1.79664 0.329237
2.07531 1.24662 0.79617
-0.213119 -1.11992 0.230632
-0.0135257 -1.39488 -0.852521
-0.516827 -2.02135 -0.206387
-1.47898 0.61552 1.40287
-1.48531 0.48244 0.0496303
-2.5624 0.511196 -0.223151
-0.865724 -1.63296 0.0899391
1.82609 -0.93424 -1.13251
0.0484662 0.74868 0.484568
-0.16945 -0.0625114 0.557805
-0.783669 1.27734 0.521168
1.2395 -1.23801 0.546404
-0.801079 0.370531 -0.217498
0.164775 -0.228647 -0.0171485
0.421331 -0.238435 0.33792
-0.312931 -0.0865111 0.523698
0.129804 0.0612949 0.465014
0.205894 0.0204792 -0.609987
-1.33343 0.560742 1.63603
-0.267292 -1.79269 1.43845
0.295468 0.907583 0.0704612
1.34661 1.51098 -0.608992
-0.967706 -0.759758 -0.371108
0.00919406 -0.830518 -0.249002
-1.05079 -0.395497 -0.054976
-0.358743 -0.401337 0.0367581
0.272123 -1.25503 0.0803373
0.206294 -0.39044 0.0282916
-0.10981 -1.00768 -0.593549
0.0732094 0.26686 -0.669883
-0.983604 -0.235132 0.619031
0.926228 -1.9151 0.103496
-0.564534 -2.34771 1.60326
-0.248556 -1.87633 0.543127
0.490576 0.483686 0.0219167
-0.381852 0.851125 -0.430549
0.959619 -0.204883 -1.17019
1.1 0.646714 -0.144822
1.46225 1.45659 0.249347
1.31234 -0.807097 -0.151777
0.668557 0.745862 0.97819
-0.147471 -0.459916 -0.219265
0.934444 1.32432 -0.846139
0.688463 0.401962 -0.153025
-0.635976 -0.198936 0.263697
0.334189 -1.17446 -0.2924
0.0703092 -0.671034 0.228387
0.182146 -0.221814 1.30144
0.00325504 -0.580722 -1.47175
-0.534635 0.944067 -0.0796858
1.96843 1.84288 0.924121
-0.881317 0.811081 1.04235
-0.65589 0.913788 0.132002
-1.24405 1.21091 1.90857
-1.51623 -0.676137 -0.202179
-0.213323 0.274877 -0.777729
-0.0476904 -0.0425077 -0.551486
-0.269945 -2.07883 0.148691
1.40766 -0.131371 0.0465221
1.45501 -2.01916 0.452121
0.250947 -0.678703 -0.932506
-0.34542 0.163658 0.589747
-1.33833 0.0423926 1.22396
-1.65764 1.48546 0.093264
-0.900373 0.914505 0.980834
-0.411726 0.331696 0.477326
-0.390526 0.848836 1.53398
0.226069 -0.414643 0.00257542
-0.383505 0.746953 0.97999
-0.129104 -0.216012 0.211164
-0.200313 0.443973 -2.14101
-2.89858 -1.78746 0.213949
-2.91895 0.596869 1.3318
1.58946 0.635058 0.277695
0.921895 0.235244 -1.45503
-0.136324 -0.614162 0.0781309
0.00649442 -0.344721 -0.386065
-0.0893164 0.71544 -0.236026
-1.33387 0.0492001 0.534572
-0.805806 0.858199 -0.913432
0.305047 -0.574901 -0.753434
0.312678 -1.22959 0.0331493
0.471795 -0.218129 -0.39291
-0.161324 0.458879 0.73617
-0.503262 1.3575 -1.99544
-0.0507648 -0.555882 0.547118
2.87351 -0.909978 -0.589559
0.689014 -1.66171 -1.13931
-0.554769 -0.445635 2.3452
-0.76166 -0.0302377 1.27217
0.361155 0.929024 -0.337403
-0.838227 -0.470644 -0.0281985
-0.0754383 -0.89287 1.20576
-0.645986 0.43081 1.1876
0.262128 -0.930883 -0.254925
-0.476011 -0.127855 1.34113
0.21005 -1.78177 0.716557
0.625034 0.608303 0.742255
-1.25052 -0.135258 -1.05727
0.0139854 -0.775348 0.1096
0.174891 -0.166153 1.20095
1.57767 1.07127 -0.863271
-0.208723 0.657983 1.38872
0.770825 -0.421964 1.93157
0.456515 -0.376706 0.0680378
-0.242009 0.913974 1.72153
-0.714015 1.49652 0.0137172
-0.223489 0.76469 -0.0902221
-1.20018 -0.684908 0.394248
1.0459 0.0881047 0.358256
-0.168783 -0.81241 -1.884
0.160328 0.167524 0.22678
-0.068077 -0.460617 0.511138
-0.500579 0.672418 -0.68917
-0.101524 0.0711554 0.555079
0.357597 -1.0501 0.0107428
-1.16542 1.30618 -0.371973
-0.802673 -0.409789 -1.12442
0.315253 -0.0875645 1.45983
0.111699 0.460557 0.870328
0.197375 -1.4552 -0.244901
1.11055 0.21651 0.49138
-0.618385 -0.419439 0.725037
1.25897 0.117054 -1.09358
0.711955 1.26734 0.914873
0.158626 0.721664 0.80547
-0.298068 -0.268905 1.00048
-0.818017 0.0182901 -0.9041
-0.425144 -0.263687 0.670958
-1.34548 0.0668082 0.840063
4.82184 0.864758 0.594068
0.0183124 -1.60083 0.209958
0.684295 0.289766 0.397995
0.019103 -0.662167 -0.0935619
1.1367 -0.577083 0.0165537
0.609094 -0.383673 -1.34853
0.235355 0.293949 0.234618
-0.488156 -1.01197 -0.0793064
-0.5504 -0.631703 -1.40585
-1.32326 1.19783 2.86574
1.83968 0.728741 -0.172974
0.173743 0.0544033 -0.212118
-0.715472 0.855774 1.15461
1.42852 0.90134 0.839187
1.90639 1.36217 0.833877
-0.911061 -0.788188 0.846127
0.293778 0.00364603 -1.31603
0.0752395 -0.544855 0.732742
-1.01125 -2.80883 0.557309
-0.646872 0.0552056 -0.114344
-0.0314137 -0.364169 0.752722
0.825103 1.87664 -0.642138
1.3019 1.63451 -0.665184
0.501336 0.260434 0.231239
0.327777 0.456555 1.1996
-1.85731 -0.425427 0.146123
0.0652713 -0.0311689 -0.199424
-0.699042 0.366509 -0.466682
-2.09379 1.4158 -0.27599
-3.34162 0.0187138 -1.42694
-0.861797 -0.548191 1.23034
0.176104 0.78067 2.02418
0.133289 1.18557 1.77736
0.873267 -0.966987 1.44582
0.217728 -0.226722 -0.387469
-0.138401 -0.258999 0.639263
-0.423828 -0.49681 0.0493971
-0.129824 -0.224761 -0.197875
-0.0519944 0.451412 -0.42822
0.0969349 -0.931758 -1.36469
0.222069 -0.273934 0.0176248
1.05129 1.35473 0.838448
-2.09943 -0.0835958 0.637793
-0.818858 -0.103301 -0.660039
-1.25526 -1.01675 0.334427
0.298148 -0.0526453 -0.957572
-1.37588 -0.331971 -1.10272
-0.0210504 -2.81077 -1.74971
-0.633293 1.06913 -1.76693
1.23914 1.15535 0.171004
1.34727 -1.90539 -1.75043
1.27935 -0.233247 -1.83204
-0.467379 -0.887044 0.454757
0.367812 0.00761191 0.267002
-1.1799 -0.567988 -0.252954
-0.15208 -1.09608 -0.332541
-0.564213 0.115146 0.485454
-1.69462 1.63566 -1.0104
0.0203132 1.79628 -1.10633
-0.529771 0.339289 -0.348464
1.11744 0.897181 0.603355
-0.500378 0.401609 -0.810269
0.811154 -1.00927 -0.448987
-0.0650692 0.727091 -0.130484
-0.69285 -1.70021 1.15362
0.430668 0.740757 0.0610636
0.904905 0.767648 0.251006
-0.809602 -0.963076 -0.28264
0.314467 -0.43606 -0.912133
-0.54947 -0.154085 1.78614
0.659825 0.19132 -0.15671
-0.608339 0.593668 0.0551059
0.00726432 0.576727 -0.481517
0.213249 -0.62798 -0.452703
-2.79127 -0.382352 -1.12241
-1.1423 -1.20889 0.388405
-0.0383803 -0.555966 1.34361
0.245001 -0.109734 -0.277133
-0.95363 -1.12947 -0.200099
0.597253 -0.0905465 0.671304
-0.273321 0.20998 -0.23389
0.283857 0.0231932 -0.0813321
-0.127707 0.514953 -1.10485
-0.115039 -0.951292 -0.548243
0.0310097 -1.36527 0.790401
-0.396004 -0.109066 0.835121
0.0679052 -0.241865 -1.32657
0.732699 -1.5621 0.510944
1.17825 -1.20707 -0.327839
0.892259 1.29161 1.21309
1.04288 -0.0902777 0.202534
0.180859 -0.56775 1.55162
-1.4987 -1.09582 2.32275
-0.379737 -0.154283 -0.880827
-1.02963 0.687674 1.54006
0.353637 -1.35521 1.05373
-1.3126 -0.11049 -1.28414
0.288801 0.79538 0.53549
-0.546951 -0.324451 -0.190433
0.859958 -0.606133 0.685747
0.147751 -0.753919 0.468885
0.316468 -0.316696 1.11456
0.832115 -0.578952 2.21815
-1.11022 -0.375409 -0.335759
-1.22358 -0.0999173 -0.0500054
0.542779 -0.399336 0.170976
0.661464 0.182464 0.748883
-0.94784 0.234432 0.959179
0.210694 0.300793 -1.72444
1.69071 -1.72768 0.3476
-0.853299 1.02771 0.81704
-0.922282 0.620806 -1.04895
-0.535622 0.392434 -0.883972
-0.185337 1.57124 2.07849
1.34701 0.521871 -0.193538
-0.142957 0.299445 -0.411197
-0.0686547 0.267881 0.906814
0.154296 0.566353 1.05659
-0.413891 -0.414363 -0.29053
0.0181611 -0.299669 -0.43808
1.87406 0.353937 -0.212713
-0.107191 0.136557 0.719451
1.31235 1.75308 -1.95424
0.25107 -0.506518 -1.05918
-0.962448 0.31037 -0.932698
-0.269443 -0.404573 -1.13305
0.11284 -1.11248 -0.232559
0.679705 0.113597 1.08039
0.257833 1.21201 -0.653284
0.2014 -1.20402 0.764941
-0.484256 -0.439618 -0.0916584
-1.26821 0.480482 -1.25966
0.342222 2.17443 3.3845
-0.99602 0.645315 5.43669
-2.71704 0.8278 1.63817
-0.670094 0.692982 0.112185
-0.291334 0.233643 0.666608
-0.422262 -1.25589 0.991334
1.96619 -0.522474 -0.506737
0.257597 -0.203683 1.74929
-1.16341 0.256873 0.906049
-2.62325 -1.99486 0.337429
-2.02323 0.40068 0.671541
-0.340127 0.717136 -1.30385
0.133698 -2.55775 -0.565543
1.28802 -0.293423 -0.0407872
0.480662 0.175191 0.66835
0.357162 -0.645121 0.934069
-0.113387 0.193648 -0.198894
-0.110735 2.35426 -0.727369
0.184916 0.352437 0.661569
-0.0745801 0.484267 -0.506603
-0.0370937 0.182386 -0.278871
-1.66457 0.116366 -1.08043
0.602439 0.912746 -0.786472
0.069272 -0.429964 0.70828
0.216695 0.340251 1.03421
-0.341293 0.593078 -0.388301
-0.553788 1.12202 2.23869
-0.999476 -0.220279 0.346314
0.799204 1.29544 0.406224
0.643975 -1.07812 0.765362
0.446499 -1.66521 -1.05366
1.94773 -0.170139 0.771101
-0.352395 -3.27667 -0.3469
0.90283 -0.717241 0.359217
0.119962 0.0137456 -0.0850753
-0.892778 -1.30003 0.204154
-0.54755 0.453709 0.450615
-0.206282 -1.65933 0.456732
-0.517819 -2.00427 0.13764
1.26037 -2.44299 1.47447
-0.0209165 -0.00711464 0.180327
0.0746451 1.02944 -0.995289
-0.0517217 -0.841594 0.394078
0.0102944 -1.79046 0.128548
-1.06679 0.123628 0.327529
0.324744 2.08373 0.644656
-0.847217 -1.11614 -2.00767
-1.05283 -0.302657 1.06139
0.584546 0.237204 0.0919647
-0.478592 -0.357768 -1.30915
0.0454842 -0.131295 0.227103
2.35426 2.36228 -0.619166
-0.399992 0.195102 -0.0814331
-1.21091 -0.0771295 -0.0283267
0.509286 -0.404237 -0.420523
-0.390296 -0.498695 -1.08286
-0.686861 0.607238 -1.5188
-0.740791 -1.43683 -0.770832
-0.110582 -0.719459 1.56114
0.755509 1.58014 0.241577
0.750194 -1.41226 1.3978
0.00861637 -0.880608 -0.584804
-0.945553 -1.06903 0.74892
0.125036 1.25769 1.81596
-0.901282 -0.439352 -0.971235
0.0143794 0.550073 -1.1841
0.0251543 1.1743 0.537534
1.2381 -0.659902 0.523536
1.45732 1.61528 -1.37416
-0.287345 -0.248302 -0.123017
-1.79542 0.776919 1.07715
-0.183553 -0.662555 1.79719
0.981824 -1.59332 -0.564149
0.326509 -0.0246838 -0.059203
0.303571 -0.0486085 -0.988492
-0.115819 -0.0798358 1.63059
-0.979017 0.536073 -1.3255
-0.124892 -1.17949 -2.03724
0.642379 -2.85297 -1.42474
0.626791 -0.900612 -1.39105
-1.20661 -0.989627 0.368825
0.325615 1.28078 -0.565315
-1.58551 0.144612 -0.0699605
0.291708 -1.81008 -0.819698
0.248959 0.587236 -0.112016
0.677944 -0.782971 0.714669
0.0437944 -2.06118 -0.557636
2.38164 0.599839 1.62721
-0.587618 0.386838 -0.336799
1.42316 0.554856 -0.0606289
0.34891 -0.0760982 -0.957004
-0.0720384 -1.13061 -0.506365
-0.161226 -0.129612 0.37747
-0.263815 -0.49376 -0.923367
-0.338493 0.159444 -0.0581714
-0.25869 0.765885 1.58768
0.157204 -0.437903 1.03292
1.29132 0.739917 2.5151
-1.35647 0.835157 0.179729
-0.771013 0.323737 -0.350949
-0.427102 -0.306078 -0.302257
0.53364 -0.530337 -0.883549
0.308108 0.116593 1.1323
1.06457 -0.254388 0.962242
-0.1954 0.355772 -0.322738
-0.499241 -0.025601 0.0139583
-1.50565 0.401316 1.24621
-0.256557 0.16877 -0.0660501
-0.435092 1.62402 0.640117
0.694265 0.039356 3.10758
1.44951 -1.95796 1.57338
-0.139723 -3.77038 -0.0186589
-0.500899 -2.06124 -1.30475
-0.245336 -1.55652 -0.922204
0.209685 0.73898 -0.0367402
0.586376 -0.220734 -0.454256
-0.760024 -0.216891 -0.204243
0.0960023 3.90065 1.07484
0.18767 0.335701 -1.45163
0.676882 1.39177 1.00423
-0.218884 1.74573 -0.374331
-0.0367203 0.992842 -1.09906
-0.318918 -0.31334 0.135158
0.853092 0.0434212 1.61463
-0.0506267 0.786572 -0.110211
0.268408 0.634503 0.0115835
0.137761 -0.441056 -0.2432
0.727813 0.4141 0.0688485
0.221494 -0.292568 -0.153109
-0.39735 0.182399 0.947683
1.62988 -1.32224 1.51566
0.55964 0.336818 0.0818354
0.363965 0.975281 -0.0408422
-2.63074 0.96984 -0.589859
-0.20842 1.11749 -0.116602
-0.0713036 0.744602 0.670238
0.873078 -0.0827862 0.183744
-0.26125 0.00718023 -0.589619
0.325329 -0.915011 -0.629604
0.477519 1.33617 -0.788372
-0.344523 4.25868 0.709039
-1.24267 -0.00327463 -0.862466
1.21694 -2.97249 -1.21229
2.09345 -0.848921 -1.40997
-0.652507 -0.979703 0.0842456
-0.331423 0.249767 0.875223
1.04373 -0.349146 -0.0696149
1.00278 -0.562344 1.65223
1.01439 -0.0125125 -0.831902
-1.01287 0.274426 -1.06471
0.455067 0.0693895 0.143601
0.148527 -0.487741 1.00549
0.414506 0.831435 0.436851
-0.0287894 0.737448 -0.592306
0.531957 1.82996 -3.47437
-0.467794 -1.48547 -1.04437
0.889419 -0.0689316 -0.96074
0.0707996 -1.91504 1.11464
0.355576 -0.967155 -0.283094
0.350644 0.418379 0.485509
-1.42951 -1.0438 -1.12933
-0.170874 0.0295589 -0.0518203
-1.34817 -0.419306 -0.877044
-0.41283 0.0902664 0.605213
0.959486 -2.70956 0.920609
-0.305853 0.450889 -0.246977
1.45323 0.729115 0.35261
-0.151829 0.45553 -0.68625
-0.0836681 1.91057 1.10257
-1.10599 -2.08799 1.59731
-0.438377 -0.999193 -0.65245
-0.0227151 -0.0810609 0.641782
-0.242842 0.381538 0.0368396
-0.0310896 1.24791 -1.18134
0.308234 0.425441 -0.737928
-0.0954782 0.604708 -0.241653
-0.259702 0.944088 0.835726
-0.694695 -0.441637 -0.447233
-0.211059 -0.161783 0.948719
-1.3254 2.15602 1.21993
-0.288156 1.33586 2.03115
-0.288586 1.57447 -1.02387
0.448413 -0.234231 0.379742
1.68626 1.32704 -0.752393
0.296879 0.349352 0.125695
-0.233386 0.433292 -1.09313
-0.0557245 -0.626211 0.633231
0.151267 -0.565788 0.576547
-1.31308 -0.957252 1.02642
0.277198 -0.76233 2.34051
0.730025 0.0778912 1.40221
-1.66057 2.10885 1.79731
-0.185397 -0.242396 -0.401341
-1.18754 1.13834 -0.494479
-0.785371 -0.18146 0.463235
-0.0570547 0.660557 1.14966
-0.079333 -0.738409 1.84325
-0.517829 0.160512 -0.280456
0.175365 -0.0110323 -0.640387
0.146652 -0.907247 1.09123
-1.45829 -0.591375 1.72914
-0.584698 -0.248266 0.349217
-0.81056 0.515655 -0.390798
-0.540167 -0.721122 1.02614
1.34231 -0.68335 0.742753
0.105596 -0.258071 -0.0346513
-0.578364 0.459789 -1.60205
0.546601 -0.377324 -0.38635
1.1274 -0.6156 -0.438848
2.18091 2.46737 -1.66287
3.51415 2.98822 1.05407
2.71281 3.0889 -3.23693
-1.20393 1.44628 -1.58093
-1.19058 -1.08344 -4.25347
0.972479 0.859715 -0.923366
0.713601 -0.351396 -0.696054
0.546539 1.1853 0.517417
1.11874 -0.392339 -0.87804
0.365259 -0.14623 -2.31614
0.185694 3.51759 -1.77842
-0.530635 1.14853 -0.873268
-0.470888 0.41315 2.22893
-1.16632 0.933845 1.01813
0.283807 0.192657 0.529203
-0.555469 0.178267 0.431911
0.730979 1.88361 0.318761
-0.867534 -0.31628 -0.721463
-0.126492 -0.213172 -0.467945
0.123437 0.60229 2.14477
-0.237661 -1.05369 -0.89246
0.737982 -0.212823 -0.955931
-2.05285 -1.81732 0.429621
-0.2072 0.00909758 -0.385219
-0.231259 -0.87194 0.718856
0.779807 -0.00234302 -0.0389778
-0.22858 0.0571523 0.0259625
-0.196833 0.387514 0.356335
-1.60181 0.183627 -0.257579
-0.276684 -0.165279 -0.114764
-0.555556 -0.186698 -0.43178
0.242604 -0.182034 0.798907
-0.132633 1.5252 -0.310508
-0.497063 -0.368489 0.0173166
0.436807 -0.86104 0.553654
1.78934 -1.22512 1.28374
-2.66704 0.74412 0.912893
1.38701 0.330851 -0.165911
0.721876 0.0270573 -1.56532
0.374097 1.46336 -1.20491
0.575016 -1.45405 0.486171
-0.31429 0.65669 0.781422
-1.82883 -0.833231 -0.739851
0.500992 -0.238036 0.0523702
0.363853 0.581413 -0.242401
-1.04564 -0.08505 0.37815
0.279568 -0.532257 0.334301
0.0676327 0.761114 -2.4391
-0.0439112 0.637429 -0.395322
-1.61767 -1.23204 -0.0852677
0.305844 -0.106003 0.11264
0.386926 -0.325249 0.552631
-0.743701 -0.187149 -0.438405
-0.501364 0.218177 0.177438
1.80153 1.40002 1.75575
1.84744 -0.742548 0.819202
0.954898 1.1043 -0.998429
-0.385273 1.40808 0.411658
-0.129523 -0.044859 0.00173067
0.265159 0.743411 -1.0748
1.19924 -1.41316 -1.47539
-0.377764 -2.27947 -4.10854
-1.07799 0.594001 -3.23547
0.605961 0.526687 -5.16333
-0.32422 0.331476 -1.74112
-0.553184 -0.456941 -0.0723335
-0.766015 -1.84692 1.26891
-2.74556 -0.923537 1.23599
-0.957373 -0.0549899 0.511411
-0.6312 0.191246 -0.40142
-0.0074116 -1.13946 0.469535
-2.07947 0.92604 0.767026
0.168191 -0.826534 -0.574423
-0.90808 -1.09951 -1.61082
-0.27101 -1.06535 -0.583573
0.87595 0.0894074 0.601403
1.02291 -0.578086 -0.846078
0.809739 0.716496 0.818643
-0.515463 -0.0934526 -0.361783
-0.175234 -1.69889 1.39701
-0.681255 -0.98365 0.0551953
-1.20187 1.44415 0.567221
2.07312 2.79445 -1.22544
0.598315 1.91279 0.693675
0.73911 -0.965113 -0.505367
-0.51402 -1.20796 -0.497427
0.219844 -0.183665 -0.961103
-0.292242 -0.469556 -3.34039
-0.866132 0.422306 -0.859709
0.984658 -0.107618 -0.257331
0.349848 2.14467 -1.48844
-0.426061 1.97814 -0.739107
-0.342378 -0.194448 -0.718522
-0.304067 0.433578 0.876859
0.898717 0.77064 0.904617
-1.34875 0.29389 0.442493
-2.26386 0.386058 1.12281
-1.2123 -0.296613 -0.582368
-0.451042 0.445525 -0.305603
0.546867 1.43308 1.6135
-0.111989 -0.516892 -0.497939
0.618402 -0.823704 1.41345
-0.425152 1.24026 0.731263
-0.574833 0.275585 -1.18327
-0.40828 -0.808464 -0.703769
1.17096 1.73619 1.10669
1.03393 -0.774157 0.454153
-0.502081 0.665212 -0.0295697
-0.450397 -0.885022 1.11368
-1.21353 -0.379466 -0.497916
-2.38493 -1.84237 -0.0453966
-1.92274 0.909143 -1.07076
0.360817 -0.670256 -0.293945
-0.656788 0.011607 1.44346
-1.56917 1.68091 1.43929
0.35565 0.714157 1.02928
1.28733 1.34356 -0.79697
1.79366 0.591455 1.11245
0.793925 0.642837 -0.689017
-0.641126 -0.0543021 -0.434734
0.143834 2.27681 1.24114
-1.0983 0.619793 -1.12809
-0.27047 -0.597408 0.392891
0.661002 0.234398 0.0738361
0.317775 0.0530507 0.812014
1.01474 -0.556752 -0.986514
-0.252701 -1.29645 -0.160907
-1.14585 0.688513 0.497058
0.115796 -0.554686 0.0256482
0.0949443 -0.92187 -1.45949
-0.515926 -0.341393 0.828228
-2.36514 -0.437419 1.271
0.932716 -1.50598 2.4332
-0.348186 0.820483 1.56271
-0.136664 -0.346163 -0.319809
0.303581 -0.910639 1.15629
0.221544 -1.08903 -1.82281
-0.023003 -2.38439 -1.48542
-0.161198 0.701987 -0.626973
-0.0422905 -0.00819554 -0.996789
0.0213654 -0.123881 0.276538
-0.617267 0.455087 -1.18107
0.0310834 -0.584662 -0.567209
-0.729845 0.903415 -1.52346
0.200774 0.0686077 0.384522
-1.34334 1.37774 0.0927898
2.32167 -0.201052 -1.74657
0.643698 -0.74716 1.49848
0.30675 -0.288487 0.179407
1.21925 -0.231 0.342518
-0.289538 0.697108 0.221098
0.94555 1.85167 -1.13152
-1.56782 -0.654787 -1.63935
-1.60954 0.27511 -0.332202
0.336293 -0.141908 -0.485611
0.248875 -0.478289 0.787297
0.149282 -0.204251 -0.12835
1.85854 0.610883 0.618344
-0.0676356 -0.555124 -0.611384
-0.518015 0.544528 -0.42534
-0.619799 -0.0469494 -0.282999
-0.694759 0.797872 -0.773329
-0.417371 0.732055 -0.818712
-0.67833 1.69726 -1.67422
-1.09497 0.435017 -4.17478
-0.827052 -1.23752 -1.63697
0.687982 -1.44316 0.0559459
0.501347 -0.143717 -0.814156
1.42342 -1.87222 -1.32893
-0.0312834 -0.762674 -0.859175
0.431151 -0.0437002 -0.988122
0.983304 -0.967342 -1.22633
-2.08873 -2.11142 0.499866
-0.540437 -1.32967 -0.119923
-0.117181 0.0764576 -0.18462
0.415074 -0.81058 0.0368521
2.40907 0.517263 0.954921
-0.140754 -0.0212661 1.3157
-0.845885 -0.696214 -2.27235
-0.32883 0.530771 0.0831905
-1.08344 -0.286425 0.0904626
-1.73013 -0.429416 0.84728
0.25818 0.151007 -0.0605166
-0.392739 -0.782442 0.177599
0.290109 0.386773 -0.457887
2.15424 -2.31723 2.62059
0.11673 0.715372 1.03925
-0.622575 0.395882 0.399062
1.59545 0.0724413 -0.124599
0.0563853 -0.282851 -0.58371
-0.295638 -0.00489058 -0.381129
0.711362 -0.0102334 1.36943
-0.597474 0.835257 0.5515
0.147449 0.881608 -1.6269
0.912165 -0.837132 -0.283902
1.14978 1.36115 -1.64798
1.55103 -0.213692 -1.48134
-0.183818 2.28322 -0.42298
-0.672326 0.918968 1.06651
-2.08402 1.02896 -0.231104
-1.12325 -0.222678 -2.1348
0.506889 -0.833024 1.31714
0.368175 -0.971563 0.367524
-0.571961 -0.548796 0.404515
1.01327 0.403147 0.429731
-0.035197 -0.785379 1.09558
-1.01685 0.429086 0.0646297
-0.244159 -0.191777 -0.694545
0.0976123 -0.471715 2.17992
0.343996 -0.300996 -0.19897
-0.342848 0.990613 3.294
-0.238629 2.93152 1.0247
-1.05497 0.646248 0.0713063
1.22771 0.67782 1.73569
-0.948317 -1.69229 0.982414
-0.264269 -0.108451 0.466291
0.942546 0.165265 -0.0428013
0.398618 -0.0383704 0.133379
0.342264 -0.0972746 -0.71704
1.66449 -1.99255 -1.09056
-0.144426 -1.54395 0.303491
-1.59148 -2.70451 1.12845
-0.500917 0.661658 -0.798367
0.560903 1.93833 -1.92203
-2.19417 2.45989 -2.07783
0.41822 1.9067 -4.03112
-0.591653 -0.700742 2.43775
1.95734 -0.0900971 -1.19277
0.357049 1.07333 0.115425
-0.709759 1.17287 0.58526
-0.0176267 -0.511602 1.67103
1.60428 0.425761 1.63289
0.123656 -0.726182 -1.34497
-0.67338 0.308026 0.505733
-1.54012 1.49273 -0.176851
-0.117312 0.180858 0.37542
0.862952 -1.16226 -0.429593
1.4197 0.628871 -1.82055
4.67654 1.86061 -2.05044
1.58321 1.05177 -0.297478
0.0772866 -0.106935 -0.576775
0.475792 0.512822 -0.891815
-0.34896 -0.554851 -0.361074
0.477434 -0.145949 0.13512
1.14326 -0.0557342 -0.171266
-0.608762 0.232581 0.304473
-0.83082 -0.441439 -1.0504
-0.0304405 -0.405012 -0.407867
0.00365151 1.07192 -0.0896819
-1.0415 -0.648358 2.35294
0.0455267 0.849866 0.603774
-0.0765828 1.23932 0.547299
-0.276714 -0.39335 -0.444418
-1.05576 -0.839928 0.383214
1.17561 0.180904 -1.62132
-0.592714 -0.0159751 -0.128883
-0.241843 -0.972835 1.1852
0.907855 0.261061 0.405542
0.399368 1.12166 1.54705
-0.106021 0.839517 0.582755
0.15106 0.57683 -0.0121597
0.329729 -0.712946 1.22397
-0.489273 -0.181788 0.00146114
0.501193 -0.258598 -1.37958
1.39129 0.377773 -1.80937
0.206979 1.6564 -3.41848
-0.914038 -0.930853 -1.15085
-0.108705 -0.532324 0.57419
0.0865055 1.98739 0.477032
-1.15509 0.472291 -0.943225
-0.732727 0.0101686 0.10745
-2.37765 -0.0839318 -0.269171
-0.0381309 -0.763715 0.369605
-0.690103 0.302453 1.36201
-0.0854958 0.292329 0.0218913
0.395438 0.108476 0.25412
0.981048 0.20289 -1.13996
0.0260582 0.607427 0.671688
0.569333 -1.02416 0.981845
-0.889219 -1.80654 -1.63429
-0.23482 0.0922301 0.815114
0.175595 0.0661633 0.441013
0.441274 -2.33118 -0.0578132
-0.383596 -0.211507 -2.04828
-0.00201355 0.982788 0.0493413
0.448402 -0.311285 0.335956
-0.131576 -0.580635 0.471872
0.160779 -0.411831 0.0608645
-0.127933 -0.652836 0.393776
0.509417 4.27671 1.05665
0.547719 0.757075 -0.146628
0.273649 -0.364526 1.65144
-1.3708 0.00271075 0.828865
-0.51179 0.149276 0.717357
-1.57645 0.220694 0.200036
1.7323 -2.212 1.1708
0.842391 -0.594937 0.750709
0.0945182 -0.478834 0.303275
-0.207249 -0.476292 -0.959384
-1.31658 0.884938 3.37433
-0.0182771 -0.0768415 -0.74284
0.418594 -0.180361 -0.328041
0.143118 -0.655716 0.190679
-0.558358 -0.773539 -0.483601
-0.0500536 0.0818666 1.37281
0.44626 0.908125 -1.3163
1.19836 0.45283 -0.197335
-0.593598 0.686987 0.675993
0.337949 0.222887 0.193341
-0.0500551 -2.38896 0.329878
-0.852432 1.09693 -0.685151
-0.168045 0.19103 0.405894
-0.178059 0.533011 0.500129
1.95236 1.46388 1.15588
0.136091 1.95066 -0.510879
-0.426421 -0.711809 2.34829
-2.82542 -1.06034 -1.83874
-1.44726 1.06719 -0.561436
0.439174 0.146672 -1.56738
-2.07861 -2.71596 1.72772
-2.35629 -0.772708 0.383837
-0.695437 -1.98596 0.0433201
0.712126 0.639498 -0.6867
-0.886345 -0.421194 0.3911
2.03323 1.38791 0.157281
0.663039 -0.294953 0.152551
0.713765 1.11785 1.11549
-0.198799 2.2625 0.542443
1.01832 0.962592 -0.034746
2.10879 1.11506 -0.739805
2.90933 0.671014 -2.57288
4.17203 -2.46067 -0.469902
0.648644 -0.423593 -0.201341
-0.671237 0.580667 -0.648555
1.44799 0.548132 1.29861
-0.327389 0.342204 0.425621
-0.830065 -1.39856 -1.2513
-0.185777 -0.945941 -0.0247471
-1.89996 -0.258654 -0.0883445
-0.0883796 -0.0939292 0.0818046
0.152797 0.825841 0.902544
-0.604076 -0.401679 0.30989
0.334669 0.117733 -0.144835
-0.667811 0.377056 -0.339122
-0.407695 0.194331 0.976597
1.22603 1.64139 -0.222084
-0.572882 0.484011 1.76363
0.910144 -1.35537 2.46773
-2.15368 -0.406253 1.07441
-1.27841 0.0202722 2.47161
0.0934284 0.314247 0.308885
0.276777 0.26007 0.175167
-0.61124 -0.760344 -1.96646
2.0483 -0.382559 1.21107
0.000165777 1.06597 -1.21631
-0.450085 0.932654 -1.0729
-0.524949 0.702396 -1.9117
0.978248 0.227127 0.391934
0.295029 -0.0246691 -2.21113
-0.450869 -0.935374 -0.828575
-0.0703461 -0.0484668 1.42443
0.0165156 -0.256509 -0.787721
0.423607 -0.81764 -1.41748
0.587047 -0.309158 0.756742
-0.209518 0.146889 0.360199
0.277935 -0.198735 -0.273253
-0.416212 1.20874 0.882925
0.875451 -1.01417 0.394091
0.301314 -0.742934 -0.330146
1.11122 -1.06885 -0.665032
0.245649 -0.135635 0.0516424
-0.73022 0.987184 -0.212485
-0.238975 -0.736158 -0.29224
-0.189233 -0.208724 -0.454032
0.610976 0.542612 1.16137
-0.289022 0.0724623 -0.349259
0.0773097 -0.136979 1.02296
0.97458 0.912096 -0.0128354
2.36289 0.702462 1.00347
-0.65075 1.54941 -2.22123
-0.280578 1.21787 -0.417849
-0.128234 -0.212011 -0.334574
-0.103658 0.524575 -0.0207826
-0.862439 0.0251118 -0.327599
1.52764 1.21292 1.523
2.66592 0.565242 1.06598
0.119538 1.08459 0.0326117
-0.343991 2.11338 -0.169018
0.519196 -0.559048 0.717315
0.406465 -0.186191 -0.257786
-0.446968 -0.384943 1.19659
0.31785 0.286573 0.773104
-1.49379 0.310883 2.69944
1.24088 -0.276679 -0.828197
-1.32249 0.646205 -1.13832
-2.08128 0.330348 -1.33576
-0.483994 0.931209 -4.13716
-0.138851 0.730247 0.782259
-0.101184 0.261817 0.25317
-1.61376 0.141296 -2.05279
-0.80323 0.706339 -0.30533
-0.44433 -0.77466 0.53142
-1.10195 -0.19091 -1.24032
0.458551 0.250095 0.00794932
0.0598275 0.228555 -0.104272
-0.879404 -0.961638 -0.176506
-0.11036 0.226009 2.11623
0.653189 -0.636654 0.106971
0.469127 -0.00623198 -0.218064
-0.999438 0.103065 0.873825
0.275992 0.667526 0.380455
0.379423 0.477314 0.0256296
-0.492655 -0.584812 1.09489
1.67512 -1.80085 1.13429
-1.1362 1.73972 -0.675838
-0.0794527 0.487453 1.08378
-1.20261 0.0552186 0.0610038
1.03961 0.712495 -0.466942
0.134457 -0.252989 1.17376
-0.995558 -0.376487 -0.973552
-1.93196 -0.433269 0.138192
-0.0128267 0.508617 0.799527
-1.83828 -0.507626 -0.127972
-0.0110504 -0.131674 -0.73146
0.0236238 -1.26955 0.310265
1.03968 -1.02377 -0.667855
0.903676 -0.0649958 1.15401
0.47449 0.638301 1.55938
-0.264485 -0.00799554 0.318617
0.94755 0.176897 -1.56925
0.0529991 -0.0913611 0.365403
-0.471911 0.778336 0.9475
1.21551 -0.287444 -0.764284
0.320649 -0.162934 -2.03989
1.03134 0.539416 -1.54526
-0.785982 -0.563583 -0.220607
-1.189 0.626992 -0.812808
-1.31955 -0.595805 -0.0227486
-0.590203 1.17228 1.05305
-0.131251 -0.180045 -0.462866
-0.0545325 -1.05241 -1.23847
0.765703 -0.714759 -0.0317415
1.00099 0.188289 -1.1425
-0.742895 -0.377527 0.0214908
0.092011 2.12757 0.414145
0.279753 -0.28655 -0.490056
-1.39899 0.51082 -0.139043
-0.0447247 0.0871448 -0.754432
0.302879 -0.38714 0.344805
0.146882 -1.84616 0.216763
0.404185 -0.869161 -1.15759
-0.236842 -0.335197 0.150638
0.793589 1.31937 1.0447
0.22476 -0.176445 -0.405889
-0.150555 0.410386 1.66642
-1.10622 0.790572 0.602299
0.214439 1.18654 -0.343701
0.289869 -0.27568 1.38201
1.03562 -0.90447 -0.844153
-0.915527 0.972841 0.105436
-0.163552 -0.330523 -0.878855
-0.337729 -0.0379832 1.61312
0.0739431 -0.131309 -0.310858
0.509246 -1.24937 0.311672
-1.7146 -2.04212 0.654889
0.790905 -1.47064 0.228119
1.36899 -1.1397 -0.687471
-0.701727 -0.654165 -1.39779
-1.04283 0.0756504 -0.121777
0.764206 0.0284055 0.594349
0.703415 -0.0526868 -0.498584
0.30084 0.443449 -1.47948
2.22005 -0.295604 -0.12466
-0.140009 -0.849882 -1.39785
0.728582 -0.664908 0.413508
0.0963422 1.38362 -0.0482238
-1.09777 1.1707 -2.65126
0.621787 0.636489 -0.810178
0.293581 0.244764 -0.0995383
0.0309809 1.94305 -0.357756
-0.329075 -0.705551 -0.0968783
-0.748294 0.575313 0.628664
0.23912 -0.7888 1.08678
-0.733665 0.0453142 1.33126
1.03689 0.800507 -0.963871
2.00886 0.192037 -0.807059
0.528379 -0.0624281 -1.9206
0.222259 -0.508163 0.876363
-0.146397 0.375849 0.231053
0.549805 0.922453 -0.188547
-0.0428712 -1.06304 -1.53834
0.289623 -1.41259 -0.466204
-1.00697 -0.532201 0.601785
-0.0546507 0.578241 -1.37708
-2.68016 2.31706 0.883647
1.13675 1.03879 -0.535601
-2.18167 -1.69696 -1.92566
-2.03551 1.2713 2.11493
-0.0189882 -1.37634 2.71857
0.891345 0.436117 -1.14343
-1.18987 -0.0210948 -1.54838
-2.04136 0.542935 -0.455025
1.10373 -0.570768 -0.00121054
1.33815 -0.143235 0.53489
-0.591057 -0.184543 -0.16052
0.535056 -0.750173 0.00493021
-0.0844261 -2.06582 1.14848
-0.446624 -2.75666 0.57579
-0.385543 -1.44296 -0.582302
0.477462 -0.516163 0.354424
-1.14326 0.449844 0.794309
0.301028 -0.124195 -0.658925
-0.622129 0.580454 1.76421
1.14343 0.643427 3.55936
0.73926 -1.402 0.786191
-0.698412 -4.44396 3.84485
1.55961 -3.21081 1.9407
-0.0189281 -4.2047 -1.01664
-0.00764956 -0.640838 0.572998
0.196276 0.723207 -0.119674
-0.650289 0.108212 0.821313
0.291156 0.672339 -1.06757
0.453641 0.255354 0.0925959
1.38305 0.734782 2.79586
-0.538109 -0.619559 1.33958
-0.0771038 -0.0214654 -0.13086
0.498448 0.876612 0.307267
-0.0982981 -0.8576 -0.707314
-1.65689 -1.42895 -0.758818
-0.163902 0.378606 -0.25941
-0.189526 0.0431735 0.2552
0.216478 -0.668289 0.0689417
0.124608 -0.0118499 1.99332
1.57686 -1.28485 1.27941
-0.904096 -0.226599 0.0590759
0.823767 0.79087 0.173574
-0.228044 0.0717542 1.60532
2.58928 -1.49541 1.0541
0.174418 -1.26069 -2.25281
-1.44459 -1.87088 -0.580154
-0.586887 0.105816 -1.06726
-0.0471237 -0.180478 -0.033236
0.536066 -0.140181 0.708109
0.619826 -0.0514807 0.107823
-1.97858 -1.68804 0.279553
-2.32772 0.0564737 1.30245
0.118737 -0.283437 0.0587541
-0.609467 -0.0886002 -0.277583
0.509846 0.309685 0.445258
-1.70905 0.733201 1.14932
1.74123 0.346509 0.132051
0.326791 -0.911593 -0.378006
0.427024 -0.436401 -0.0696601
1.42661 -0.98676 -0.194424
-0.753704 0.137008 -0.221865
-2.44113 1.70563 2.49192
0.38134 0.304265 -0.119976
1.17326 -1.00264 0.876075
-0.80895 0.636663 0.154872
-0.226601 0.0284716 0.133825
-0.329628 0.663141 0.899404
-0.444943 -0.892251 -0.978185
0.841038 0.141441 0.626501
0.232673 1.2806 0.111168
-1.34083 0.373555 -0.197367
0.124554 0.410091 0.626888
0.11173 -0.91586 0.360516
0.0919493 -1.39843 0.490969
-1.43491 -0.385271 0.163206
1.13761 0.102338 -0.0327424
0.347866 -0.0585584 0.395922
-1.7841 -0.763024 1.73391
-1.34517 -2.05364 1.1055
-0.382178 0.279225 0.396998
-0.602042 0.460548 -0.25158
-0.482086 0.577669 -0.75838
0.796683 0.114296 -0.150651
0.733546 -0.131301 -1.07683
-0.143161 0.03376 -1.97369
0.135151 -0.731128 -0.560079
0.565544 0.0261951 -0.49579
-0.465381 -0.167728 -1.09306
0.425386 -0.190551 0.12838
-0.147428 0.346452 -0.405282
-1.50415 2.04524 0.157173
0.645283 -0.798317 -0.995224
0.204831 -0.94498 0.328686
1.54751 -1.73917 -0.498085
0.840999 -0.447999 -0.718691
-1.03116 0.499039 1.38871
-1.33461 0.878967 0.187236
1.13356 -0.160684 -0.24848
0.0895629 -0.273792 0.449285
-1.52588 -1.02468 -0.241324
-2.14415 -3.28325 0.658899
-2.5853 -0.413459 -0.905405
1.41401 -2.17343 -0.810354
0.953092 -0.755159 0.131147
-0.345891 -0.0200502 0.437524
-0.253354 -0.916517 -0.463614
-0.0892162 2.91838 1.45263
-0.136881 -1.03826 -2.29826
-1.32752 -0.468569 -2.00354
-1.23752 0.271126 0.378389
-0.153422 -0.228275 -0.256153
-0.440624 0.845176 0.993484
-0.226725 2.54857 1.19195
-2.67165 0.554156 0.152169
0.0228507 1.46985 1.07994
-0.109139 0.404413 -0.967031
0.648263 0.982065 -0.321561
0.98214 0.0799472 -1.22027
-1.89181 -2.39371 -0.051259
0.323468 -0.894482 1.08312
0.660151 -0.491948 1.42266
-1.05437 0.146275 -0.0164394
0.151594 -0.620183 0.489788
-0.625018 0.0739935 0.0656968
0.519562 0.721305 0.898609
0.219181 0.833236 0.855617
1.30867 -0.480779 -0.103318
0.0720635 -2.2867 1.16017
0.488478 -2.4314 -1.25157
0.449151 -1.40139 -0.164886
0.108474 -0.358158 -0.872503
0.782973 0.351041 -0.745282
0.698018 -1.26266 0.186333
-0.521206 -1.25755 0.942974
0.238788 -0.211242 0.48866
-0.52965 -0.174277 0.0243873
-1.44461 -0.353916 -0.762581
-0.204747 -0.319942 0.205702
0.0679743 0.41285 -1.86488
-0.269328 -0.0720371 1.58058
-1.47278 -0.473299 0.730141
-1.529 -0.180181 0.114073
2.27177 0.178643 1.05814
0.440756 -0.06455 -1.18683
0.677525 -1.97975 -0.208516
-0.0585821 0.700466 0.163045
-0.524454 0.373291 1.10207
1.17224 0.706129 -1.0048
0.0410539 0.148501 0.201322
-0.451046 -0.581406 -0.393312
0.574292 -0.477641 0.0806524
0.466981 0.384233 1.54543
0.62774 0.0942252 0.0138204
0.0938776 1.0693 0.237952
-0.479628 0.0661644 -0.759724
-0.125243 0.167744 0.546341
1.8868 -0.911959 1.00049
-0.325683 0.545491 0.336095
0.773766 0.31464 0.249564
0.396643 -1.332 -0.419936
-0.0265322 -0.417304 -0.427507
-0.143195 -0.581147 0.195787
-0.336828 0.581522 -0.4236
-0.861751 0.0266855 0.967326
0.844126 0.437263 0.150892
-0.613763 0.250427 0.696095
-0.0377075 -0.859932 -0.866048
0.955734 -3.78749 -0.907905
-0.506979 -0.0236103 0.0601905
-1.23626 0.0468645 -1.78645
-1.44733 0.822181 -0.893041
-0.889404 0.939156 0.732267
1.88555 -0.607653 1.58806
0.865812 0.78597 0.298549
-0.618905 0.646862 -0.221367
-0.620934 0.975726 -1.01082
-2.00614 1.49736 1.01336
-1.29241 -0.615748 -0.119142
1.28785 -0.612489 -0.288251
-0.419505 -0.677531 -0.254998
0.7946 0.0409745 0.163089
0.825935 1.74231 0.538531
-2.32616 1.76422 2.0587
0.110999 0.4706 -0.627691
-0.168335 -0.0393699 0.092265
0.485889 0.374671 -0.39312
0.111703 -0.735589 -0.449356
-0.101227 -0.326999 0.462265
0.12346 -0.4516 1.08193
1.36927 1.04809 0.434139
-1.96582 -0.875756 -2.39537
1.65672 -0.155749 -0.263252
0.00594407 2.08916 2.7891
1.27613 0.0715393 -0.335768
3.45809 -2.7699 -0.0962818
0.598885 -0.732951 0.85008
1.30938 -0.277545 0.125254
-0.159134 0.0796671 -0.133797
-0.120855 -0.789101 0.761158
-1.45043 0.0852219 1.92332
0.715713 -0.905374 0.166387
-0.526816 0.469109 -0.810014
0.679797 -0.49339 -1.66306
-0.0444946 0.527804 0.122341
0.690428 0.249847 0.241304
1.61715 0.912619 0.368764
1.14596 0.31772 0.491194
-0.372572 0.222948 0.126495
0.742434 0.640723 0.756508
-0.808657 -0.995166 -1.1369
2.47646 -0.124664 -0.356355
0.0775556 0.545002 -0.913782
0.108019 -0.0614715 -1.02008
0.527551 0.0996599 0.494889
-1.22843 0.31348 0.253461
-0.713612 -0.324008 0.138023
0.283203 -1.26193 -0.408665
0.242568 0.296625 0.109559
-0.474508 -0.0689783 -0.399142
-2.20248 1.3407 -0.300277
0.247453 -0.681054 0.117013
-1.66705 -0.19763 -0.548243
0.624853 1.12577 -1.23344
-0.734306 -1.38756 -1.00063
0.202062 -0.713447 -1.5606
-1.10638 -1.13953 0.839987
0.664768 0.6253 0.548637
-0.442411 -0.172199 -1.84579
0.376543 -0.346561 0.646468
-0.0621354 -0.180237 -0.168511
-1.03274 -0.181273 0.304802
2.27557 -0.77252 -1.80276
1.22984 0.282123 1.67882
3.69032 1.54941 -1.8238
3.4048 2.07236 -0.0624483
0.856855 2.40903 -0.490012
-0.510709 0.199582 -0.00126186
0.916881 1.18179 2.1488
-0.492148 -0.881984 -1.02861
1.92639 2.71056 1.13054
0.110787 -0.281298 -0.350426
-0.39106 0.566995 0.338744
-0.745302 1.67518 -0.235909
0.711867 1.14558 -2.28958
-0.0127365 -0.655667 -0.0817609
1.16267 0.184714 0.905023
1.46534 1.59369 -0.356638
0.974532 -1.70035 0.381517
-0.315151 -0.246607 0.0945162
-0.667265 -0.140664 0.00523203
-0.346602 0.691882 0.107175
1.20813 -0.844062 0.700386
-1.63806 -0.156645 0.497515
1.17294 0.92956 1.76781
-0.410923 -0.0954287 -0.286451
0.483086 0.625254 0.717313
-2.16784 0.805867 -0.813574
-0.892621 1.97684 -0.134786
-0.0813924 1.07349 -0.129761
0.172546 -1.14844 -1.27286
-0.764633 1.61783 0.0654806
0.316626 -0.135765 0.348821
-1.64302 0.489622 -0.574696
-2.13517 0.163122 0.197413
-1.03155 -1.25841 -0.323747
0.484697 -0.393738 0.998681
-0.612296 1.05183 0.640697
0.0819438 -0.308741 -0.476327
2.69741 0.662393 -1.56197
2.12035 -2.0449 1.7199
1.13372 -1.3579 -0.3275
1.87648 -0.766831 -1.69507
1.71386 1.5937 -0.620555
0.0135591 -0.512452 -0.0615386
1.26971 -0.554741 -0.250341
0.439605 -0.685514 -1.08991
-0.1804 -0.00109956 -0.148708
0.27491 -0.530712 -1.49484
0.489617 1.2884 -0.295145
-2.47831 -0.981537 0.607712
1.54195 -0.542391 0.923597
1.40419 0.0218773 1.41884
-1.88897 0.849352 0.856828
2.26492 2.18371 -0.413316
3.30564 0.342165 -0.14358
0.206505 0.516952 0.554065
-1.5329 0.18961 0.0693692
-1.1438 -1.2984 -0.162168
2.40874 -2.68421 -1.15861
0.995001 0.056058 -1.61211
0.204483 0.506859 -0.496371
0.00302501 2.11665 1.30703
-1.79431 4.84378 -1.54123
0.737567 0.544485 0.313107
-1.4603 -0.545483 -2.16547
-0.274765 -1.45572 -0.440222
-1.08882 -1.0338 0.128272
-1.30887 -0.378903 -0.451519
0.354082 0.00285157 0.144973
-0.174081 0.232592 0.0328644
-0.126021 0.106742 -0.582052
-0.133929 -0.469988 -0.169715
-0.631961 -0.426171 0.879177
0.789364 1.47256 -0.344879
-0.0619095 -0.294567 -0.514891
1.1245 0.208419 -0.746659
-0.40288 1.39669 1.31079
1.17817 -0.0244849 -1.36077
0.59972 0.161834 1.07097
-0.302779 0.511885 -0.506606
0.538805 0.952872 1.14944
1.8256 -0.743811 1.376
1.14267 1.55778 2.45549
0.343906 -0.121485 0.758886
0.621681 -1.1338 -0.166811
2.79986 -1.4 0.961911
-0.122734 1.20496 0.934859
1.60273 0.230807 -2.33131
0.349478 0.0666365 -0.119462
2.32429 -2.64013 1.86868
0.624767 0.063338 -2.00959
-1.22211 -0.0645166 2.30134
0.272203 0.0200073 0.574851
0.436519 -1.01871 1.35013
-0.924091 -0.180535 0.437631
0.136404 -2.46231 1.10693
-1.27368 -1.01562 1.98059
-2.37992 -0.320583 2.3821
0.447159 -0.0937634 -1.78237
0.760307 -0.0404971 -1.03265
-0.262391 -0.264011 -0.867938
0.623636 0.919527 0.180757
0.508681 0.176748 0.610183
-0.420598 -0.0736541 -0.242315
1.34638 -1.49576 0.92236
0.00450917 0.102083 -0.277361
2.32023 -0.117533 -0.0153201
1.20139 -2.1637 0.899918
1.3882 -0.14515 0.073826
0.238984 1.78186 1.30932
0.839306 1.10045 -1.99304
-0.688706 0.963276 1.07549
-0.564273 -0.558675 -0.441685
-0.860385 -0.181396 -0.882849
0.255971 0.982807 0.456902
-0.777165 0.498028 0.827925
-0.526297 -0.561593 1.34604
0.256832 1.03051 0.0767518
-0.773221 -0.101044 0.640785
-0.0911117 0.183771 -0.531507
1.73071 0.22026 0.813232
0.752099 1.38948 -1.38794
-0.943715 0.606805 1.19159
0.480602 0.41611 0.676228
-0.562665 -0.286302 -0.443362
0.579455 -0.783926 -1.38593
1.01768 1.42605 -0.246617
-0.0425431 0.0569332 -0.106647
0.543146 0.724913 -0.463854
-1.32 0.300176 -1.15995
0.188366 0.348835 0.194543
-0.353132 -0.734569 0.319986
-0.460967 0.00536491 0.520619
-0.785113 -0.344244 -0.174877
-0.147328 -0.942679 0.134951
0.42532 -0.0862399 0.458205
0.162848 -0.584599 0.831541
-0.275385 0.157595 -0.116411
-0.103897 -0.878929 0.220147
0.107438 -0.331427 0.161167
0.0116461 -0.113549 -0.170071
0.534875 -0.733662 -0.292151
-0.173823 0.365935 1.30275
0.241814 -0.146267 0.484501
2.37747 1.37936 0.659089
-0.258511 -0.597896 0.270934
0.0727777 0.034004 0.450822
-0.622273 0.367044 2.0164
-0.107969 0.827097 0.691519
1.53854 2.6846 -0.688246
-0.278779 -0.425519 -0.356636
-0.467505 -0.12158 -0.416225
0.203038 0.866703 -1.33092
0.586376 -1.6149 0.685018
-1.06107 0.235405 -0.470354
0.773502 -1.68764 0.937396
-0.255412 -0.217277 0.0802503
-0.0913991 0.813176 1.51803
-0.850412 1.15076 0.592272
-0.149484 1.573 -1.09338
-1.32401 -1.1205 0.258388
0.18439 -0.626648 2.02455
0.904653 -0.541651 -0.0232177
-0.166238 -0.42987 1.2122
-0.50437 0.724956 0.585757
0.211152 -0.379375 0.0657076
-0.919274 -0.182369 -0.999964
-0.718989 2.01476 0.0506325
-0.295857 0.801873 0.372924
0.121339 0.510914 0.527572
-2.25466 1.06618 -0.20516
-1.00706 0.685648 1.73451
0.710361 -0.739769 0.51258
0.219182 -1.11319 -0.484245
-1.17303 0.555911 -0.136177
0.214086 -0.124416 0.0697156
-0.244215 1.51731 -1.16188
-0.452225 -0.661939 0.434411
-0.757315 -1.2753 1.5286
-0.742296 0.524867 -0.541215
-0.186752 0.35235 -0.0733786
-0.0456857 0.121612 0.25686
-1.74139 0.388818 -0.771687
1.42152 -0.872742 0.97646
-1.33184 -0.311031 -0.29692
-1.12933 -0.411427 -1.67255
1.10997 -0.324035 0.139849
-0.874974 0.366794 -0.686139
-0.00712174 -0.866642 -0.217678
0.558647 1.01228 -0.0259983
