1.4594 0.195977 0.533247
2.03262 -0.341716 1.37677
0.939183 0.365484 -0.528967
0.859953 -1.28911 1.39554
1.02393 -0.855436 0.57162
-0.654659 -0.705894 -0.470105
-0.0252804 -1.31442 -1.30894
-0.343608 -0.0312762 0.522578
0.281596 1.22201 0.272242
-0.812946 1.1854 0.104599
0.206134 0.1695 0.250253
0.360899 -2.77472 0.628701
1.18962 0.542222 3.815
-0.14631 -1.45739 -0.51227
0.116778 1.34677 -0.857165
0.401521 0.86628 -0.587107
1.20737 0.624976 -0.0716252
0.0719709 0.729343 -0.107675
1.42967 1.0085 0.778776
-0.600974 -0.0208018 -1.71917
1.38146 1.6896 -1.57673
-0.370827 -0.401031 0.435188
-0.702784 -0.476245 1.10759
-1.46832 0.212828 0.367245
-0.478061 -0.319467 -0.323119
0.345264 -1.38848 -1.26033
0.729289 -0.546616 0.672305
-0.0862754 -1.05947 0.565861
-1.06422 0.374316 0.303727
0.0263192 0.497676 -1.14284
0.591889 0.0452264 -0.140735
-1.28484 0.278108 0.423752
0.948991 1.96192 -0.41907
0.255318 0.486955 -0.546236
0.0231584 0.986372 0.73846
0.0908515 -1.42196 -0.427166
-2.11609 -1.80907 2.36352
-1.57495 0.0986114 0.160372
-2.22111 -0.858399 0.500479
-1.44264 0.134494 -0.902837
0.378691 0.192794 -1.0482
0.568816 -0.258226 0.512325
-0.48543 0.236234 1.63242
0.0187929 -1.96687 -1.28267
1.52802 -0.906665 2.52684
0.877776 2.5696 1.07156
-0.237443 -0.0724212 0.316803
-0.712466 -0.870546 0.640889
1.13991 -0.52909 -0.974938
-1.09089 0.352089 1.06509
1.27587 -0.175845 1.52427
1.55037 0.910881 -0.562926
0.568317 1.53913 -0.858195
-1.06577 1.43487 -0.600039
0.08159 -0.575976 0.0355223
-2.03722 -1.10468 0.517849
-1.92629 -0.411009 -1.50587
0.786297 3.23626 1.81568
-1.06191 -3.14864 0.895471
-0.576918 -0.104277 -1.8076
1.05977 0.275873 -0.537606
0.691388 0.0282161 -0.492304
1.13569 -0.73098 0.465504
-0.526373 0.652126 -0.582136
-0.817344 0.505369 -2.27648
-0.383104 -2.29939 1.24462
-0.323507 -1.4324 -0.163623
-0.858636 -0.436613 -0.0547548
-0.251334 -0.208907 0.455884
-0.50892 1.78882 0.0424902
0.537289 0.521715 0.409835
-0.458443 -0.417277 -0.528603
0.476722 0.893545 -0.475892
0.0291346 0.169882 -2.03969
-0.205384 0.559953 0.418809
0.242983 -0.512924 -0.209966
0.395124 -0.0371566 0.18928
1.24818 0.920388 -2.02915
-1.18831 1.01061 0.327761
0.357786 0.386205 -0.514552
0.516721 -0.619542 -0.968199
-0.282673 -0.00628651 -0.775256
0.788104 -0.831141 0.630459
0.126088 -0.751702 0.0274725
-0.0917715 0.163083 -0.197963
-1.46392 -0.450581 0.766221
0.0443759 0.0722895 -0.883055
0.146114 -0.156644 0.374907
0.067072 1.17687 -0.376668
-0.448706 -0.566511 1.06571
-0.757429 -0.341999 -0.731459
-0.510962 0.0455168 -1.51614
0.562108 -0.331583 0.292615
-0.249609 -1.77035 0.827793
-1.77311 0.756162 -0.740586
-0.771341 1.2843 -0.511382
1.14398 -0.00869955 1.16585
0.146417 0.00646855 0.956252
-0.00662371 1.05443 1.09608
0.462254 -1.01973 1.97535
-0.546538 0.0631067 0.0470098
0.270545 -2.05257 0.66326
-0.977365 -1.16292 -0.0584437
-0.410742 0.528323 -0.39066
1.27054 -0.551685 -0.838432
0.365385 -0.442821 0.502823
0.297085 -1.67136 0.847679
0.90732 1.08828 3.35916
2.56673 -1.1239 1.87971
0.68319 -2.54574 1.99642
-0.345651 -0.19391 -0.214049
-0.777998 0.678339 -0.161504
-0.00987662 0.291626 0.537279
-0.0609999 0.0580376 0.261931
0.552741 0.085667 -0.688616
1.48611 -1.10056 0.893152
0.823 1.42985 -0.340622
-0.810211 1.05201 -0.151449
-0.858706 -1.67314 0.566518
-0.326359 0.122231 -0.217036
1.05021 -0.866905 0.441858
0.454195 -0.472208 1.24458
0.0291848 -1.5082 2.15482
-0.316288 0.436743 0.227944
-0.0900128 0.0323588 -0.546037
0.834983 -0.998899 -0.400429
1.7883 0.473769 -0.222362
0.83649 1.39973 0.333874
0.138183 -0.256332 -0.110865
-0.626942 0.0356139 -0.287593
-0.964792 -0.507989 -0.621727
-0.670192 0.540531 -0.438243
-0.762749 0.500095 1.70923
-1.39907 1.26474 -0.68935
-0.305053 -0.310872 -0.824724
0.556198 -0.666411 0.958342
0.0725458 0.737873 -0.446683
0.0241278 0.904098 -0.334235
1.60577 -0.398108 0.312521
0.712948 1.14861 0.211449
1.60694 1.48582 -0.21409
3.37345 0.100482 -0.6437
-0.823696 0.0356049 0.537256
-2.32663 -1.52786 2.49438
0.130306 -0.878783 2.12634
0.82929 0.995526 0.450445
0.34369 0.311533 -0.368604
-0.686749 0.893861 -0.290932
-0.00376731 -2.10011 0.622447
1.11107 -1.13869 1.10392
0.264044 -0.565952 -0.369827
-0.364338 0.224464 0.805208
-0.153484 0.0606055 -0.543982
-0.454133 1.2012 0.811574
-0.640959 0.15975 -0.644447
-0.095631 0.00979296 -0.622622
-0.19274 -0.326491 -0.285861
-0.026744 0.823795 0.111668
1.45111 0.948638 0.930635
-2.7276 -0.21756 -3.28186
0.19615 -0.73073 -0.798358
-0.668489 -1.53764 0.621314
-0.945171 0.542849 -1.79137
0.998868 0.173107 0.176644
0.722883 0.4985 0.195455
-0.181078 0.20292 -1.57991
1.17909 -0.233241 0.379988
-0.0632643 -0.720985 0.311526
-0.105316 -0.501632 -0.237218
-0.783249 -1.06184 0.286432
0.384068 -1.07336 -0.231447
-0.450402 0.476056 -0.988951
0.592884 0.143872 -0.414307
0.13241 -0.185476 -1.2458
-0.808316 -0.372672 1.38495
-0.19124 -0.392191 0.44768
1.10179 -0.171456 1.16366
1.18652 -1.73412 -0.892269
2.94659 -0.101715 -1.17333
-0.52105 0.263543 -0.0800097
2.83963 0.0902059 -1.34639
-0.208826 0.117888 -1.17006
1.61836 1.56035 -1.59663
-1.5023 0.432366 -1.67011
-0.428543 -1.54859 0.822894
-1.41215 0.0766657 0.398936
0.0908416 1.45428 1.52647
0.423331 2.47235 -1.7819
0.66127 -1.56779 -0.918639
-0.959606 0.287427 -0.0829347
0.0658985 0.0501153 1.30863
-0.0360254 0.753165 -0.953337
-2.26428 -1.38019 -1.40271
-0.100628 -0.580464 -2.30964
0.954443 -0.501392 -0.487769
-0.367313 0.847897 0.272029
0.528181 -0.0537547 -1.23525
0.636585 -1.2428 -0.188161
0.128022 1.88205 0.664554
-0.18564 -0.358403 -0.915685
-0.525318 0.144377 1.29699
0.411883 0.710952 -1.2763
-0.562556 -0.200783 1.37914
1.26638 -0.133805 -0.258609
0.538201 -0.223794 0.9475
0.85255 -1.151 -0.000131301
-1.89674 -0.708366 -0.486484
-1.01644 0.044492 -0.0336061
0.350921 0.162515 -0.419555
-0.248963 0.384988 -0.278195
0.0276112 2.6253 -2.24597
1.01376 0.664167 1.29086
-2.31908 0.98751 0.421238
0.581996 -0.245478 -0.422322
-0.289446 -0.264959 -0.298889
-1.25504 1.1864 0.00780886
0.109864 0.99591 0.0304212
-0.369733 0.475044 0.159332
0.00487457 1.2568 -0.617411
2.25729 0.0807655 -1.18761
1.23604 0.374124 -0.500089
0.0699018 -0.688677 0.244212
-0.362909 -0.482539 0.142535
0.824045 -1.44516 -1.06653
0.0323153 0.352611 -0.284263
1.65317 2.41959 -0.490696
1.45543 0.78676 0.173927
0.0872377 -0.742417 -0.0805504
0.533922 0.642297 -0.0221801
1.75945 0.24326 -1.64941
1.20004 -0.0506233 2.33797
-0.577127 -0.862012 -0.298437
-0.416684 0.156364 -1.50137
1.42867 -0.378171 1.18992
-1.02878 -0.251792 -0.399953
0.541302 -0.755723 0.315979
0.462221 0.0447338 -0.104893
-1.99913 0.0990183 -1.61914
-1.04345 -0.435876 0.49884
-0.416503 0.0396465 -0.180849
0.737722 0.513122 -0.115295
0.0987788 0.845198 0.666833
-0.993 -2.62893 0.776435
-0.318608 -0.693677 0.775569
-0.954466 -0.273522 -0.694395
-0.273656 -0.246024 -0.0211903
-1.14036 1.38701 -0.00699537
-1.07891 0.400323 -1.67338
-0.183171 -0.0100441 0.0414774
-0.639203 0.43649 -0.188882
0.183227 0.122497 0.105725
-2.3623 -0.271931 -0.340049
0.264869 -0.771276 1.35647
0.792664 0.115467 -0.0431959
2.24197 1.78743 -1.04836
-1.16579 -1.93202 -0.223036
-0.0662509 -0.238364 0.495418
0.394179 0.43849 0.211676
-0.849311 -1.30581 0.66408
0.471754 0.164397 -0.841007
-0.613938 1.28844 0.116429
-0.622543 -1.02938 1.18376
-1.24863 -1.57312 0.219739
-0.228426 -0.512176 -0.581571
-0.146134 0.288504 -1.2665
0.280549 1.34005 0.124489
0.929464 0.178975 0.359187
0.140226 -0.0806302 -0.095357
-0.613011 0.514636 0.301691
-0.0597619 -0.0605563 0.204189
0.775551 1.01297 -0.630598
0.272556 -0.009202 -0.219322
0.0979398 0.278974 -0.407414
-0.451571 -0.923067 1.64965
-0.700603 -0.185292 0.941448
-0.57822 -0.260442 0.469176
-0.29006 -0.148552 1.36212
-0.0389737 -1.14525 -0.714602
0.672219 -0.0108714 -1.11144
1.0286 2.30241 -0.942172
-1.00619 1.53842 -1.5976
-0.262587 0.11166 -2.11231
-0.263797 0.0802888 0.111283
-1.01476 -2.24338 1.38029
1.4392 -1.37918 0.987949
0.736521 -0.375785 0.862696
-1.22739 -0.0613507 1.39585
0.0427148 -0.812466 0.265677
-0.684424 -0.022785 0.0356606
0.0622482 -0.234361 0.0792858
0.246819 -0.274382 -0.0518086
0.57574 -0.00945962 0.476852
0.431493 0.454399 -1.19037
0.816603 0.453284 2.08659
-1.30315 -0.58171 -0.730105
0.774373 -0.694651 2.55919
0.377005 1.38003 2.84625
2.10256 -0.0407196 -0.593373
-0.215808 1.02022 -0.612958
-1.34647 -0.275774 1.19105
-0.847145 0.738283 0.716495
-1.24581 -0.192448 -0.574567
-1.40356 -0.774642 1.24262
-0.810268 -1.11228 -0.178982
0.935298 0.793921 -0.57328
-1.44468 0.840345 0.319347
0.0504656 1.11414 -1.44934
0.396166 0.157169 -0.77286
0.787523 -0.0985095 -0.536883
-0.497933 -0.191725 -0.301044
-0.664428 0.656122 -1.46647
-0.692664 -0.362582 0.568861
0.388318 -1.65804 -0.0936422
0.692358 -0.744236 1.42631
-0.247815 -0.526426 0.0207912
-1.18141 -0.570747 -1.77337
-0.9002 0.0151182 0.862992
0.223903 0.28283 1.53337
0.289052 2.14914 0.358493
0.11674 1.20989 0.418638
-1.45881 -1.76316 -0.205882
-0.345448 -0.00247804 0.0240568
0.178123 -0.321387 0.399394
-0.250635 -0.054355 -0.756389
-0.515638 -0.0519835 -0.683232
-1.30314 -0.15691 0.565891
-0.855633 1.18844 -1.12354
0.574922 -0.0224598 0.388658
0.373717 0.565453 0.199712
-1.25032 1.81663 -0.280376
0.487213 0.238743 -0.767602
-0.995332 0.178578 -1.05965
0.0707324 0.54685 -0.648728
0.509133 -1.8484 -2.62889
0.478949 -0.16159 -0.681243
2.85773 0.22835 0.680775
0.133437 -0.65308 -0.299345
0.539289 -0.920694 0.125075
-0.284745 -1.01974 0.489948
1.06698 -1.38175 -1.9108
0.778239 -0.102936 -0.488478
-0.263959 1.02085 -1.55493
-0.805283 0.0836173 -0.441973
0.509356 0.213267 -0.283623
0.618786 0.192193 0.333364
-1.40531 0.0226184 1.77309
-1.89987 3.36764 -0.551505
0.335814 3.0389 -0.0838107
-2.52758 1.49789 -0.0244081
-2.00981 0.478502 -2.9796
1.08362 -1.94554 3.08348
0.141041 -0.242828 0.534797
-1.51496 1.36677 1.96281
-0.926387 -1.87894 -1.44304
0.746175 -0.240759 -0.341293
0.420005 1.2486 0.0638343
-1.76536 -0.0203738 0.879242
0.655753 0.522561 -2.09134
-3.15046 -1.32626 -3.05222
-1.82096 0.509747 -1.67743
0.0867443 0.242183 -0.0825507
0.0645877 -0.22862 1.99018
-0.806718 -1.65702 -3.06045
-0.236959 -1.41124 2.6803
-0.00182348 -0.572575 -0.00959261
-0.384374 -0.313415 0.0562398
0.599288 1.743 -0.011508
0.967038 -1.32137 0.385852
0.526983 0.709779 -1.03565
0.502285 -1.33143 -0.595269
0.0806256 0.591672 0.622487
-0.564466 0.15009 1.59317
-0.0245607 -0.488834 -0.816874
-0.0355957 -1.00118 0.543883
0.587877 -0.487405 -1.03342
-0.634793 -0.72789 -0.489411
0.933707 0.958008 0.135469
0.573878 1.36652 -0.203749
-0.12002 0.263922 2.22162
0.0348809 0.804573 0.0703708
-1.8673 -0.923694 0.910352
-1.43954 -1.7687 -0.271166
-4.11874 -1.02137 -1.20484
-0.136288 0.641816 -0.0788347
-0.595362 -0.361265 1.42601
0.209238 1.24874 -0.982746
1.21426 -1.12717 -0.577189
0.339758 -0.586939 0.229994
0.416371 -0.786966 0.118125
-0.412916 0.650745 1.40054
0.402184 -0.00275865 -1.90698
1.14484 -0.246215 -0.252059
-0.0409842 -0.0979805 -2.00391
-1.26562 1.50505 -0.797049
-1.50612 -0.268869 -0.827954
-0.0448293 0.305095 -0.27902
-1.60223 -1.25827 -2.21925
-0.287612 0.406114 0.484978
0.800261 0.711567 0.320931
0.581736 0.255529 0.0285347
0.0919352 0.0756758 -0.11241
0.0600544 2.55635 1.26718
-0.397477 -1.22013 0.558511
0.141865 -0.507567 -0.709713
0.166052 0.190595 -0.602589
-0.405305 -0.555412 0.197211
-0.772393 1.49766 0.634428
1.42441 -0.516958 -0.789237
0.515507 -1.63731 0.732508
-0.123495 -0.967374 -0.147985
0.293093 -0.353684 -1.41904
-1.21578 -0.456924 -0.696211
-0.253017 1.09709 0.90696
-0.155009 -0.704201 0.408082
0.701496 0.109018 -0.216715
-1.29683 -1.73759 0.107454
-1.75318 0.222687 1.00175
0.721486 -0.897701 0.889579
-0.400916 -0.85294 0.648861
0.190396 0.165659 -0.655159
2.4595 0.909386 -0.184053
1.46252 0.980012 0.293767
0.033335 0.488343 -0.00449759
0.970594 -0.596531 -2.05535
-1.06256 -1.41128 -1.96476
-1.06304 -0.0612133 1.45572
0.106939 1.70523 0.406688
-0.986649 -0.0949644 1.51888
-1.83864 -1.04633 1.8744
-1.19926 -0.674334 -1.28536
0.0130594 0.151437 1.11998
0.234477 1.17796 -1.43308
1.72894 0.0458875 0.790024
0.265042 -0.756541 0.335018
0.0235978 0.64196 0.0221143
-1.25193 0.0809274 1.03444
0.61683 -0.17679 -1.10196
-0.176766 -0.279041 0.375935
1.40904 0.59416 -0.493652
-0.391579 -0.403208 -0.287375
0.53159 0.927842 0.49189
0.146144 -0.565396 0.336992
-1.86249 1.09413 1.11456
0.0574215 0.500902 -1.24706
2.0488 0.447347 0.888965
1.22874 0.200274 1.78648
-0.19342 -0.0245684 -0.273962
-0.184109 -0.809679 0.996808
1.3979 -0.0635366 -0.766184
0.348758 -0.113773 0.762568
0.233835 0.707295 0.661975
-1.08207 -2.64617 0.464785
0.326477 -0.00165348 -0.300573
1.74779 1.91907 -1.12563
1.35902 -1.02325 1.17215
1.45022 0.347179 0.0981186
0.329804 -0.599302 -0.0928204
0.805364 0.513305 -0.445443
-0.176556 -0.064141 0.498912
-0.356788 -0.423073 -0.569155
-0.0441799 -1.26897 -0.0930252
-1.70102 2.74449 -1.07134
-1.34416 1.28526 -0.0766877
-0.72822 0.0145214 0.802197
-0.636285 1.47492 1.42011
-2.29911 -0.252283 0.083489
-2.12576 -0.600626 -1.42908
-0.303385 -1.80277 1.51991
0.0125419 -0.394332 1.14455
0.710305 -1.07103 1.49522
0.579053 0.474427 1.70519
-0.850767 0.0164905 -0.68519
0.863709 -0.312082 -0.0334271
-0.203199 -0.636036 0.272162
-0.632413 -0.455583 0.308847
-1.59538 0.773376 0.107461
0.117727 1.09875 0.23378
-0.173484 1.08462 0.0906638
0.371961 -0.0400438 0.904019
0.578186 1.35594 -0.520021
-0.867667 0.894697 0.177195
-0.0795997 0.678296 0.908795
-0.949811 -0.875062 0.149946
-1.25676 -3.21496 2.08107
0.60412 2.60362 2.21276
0.337682 -0.57791 0.612376
0.107317 -0.365246 -0.493993
0.184561 -0.203572 -0.985427
0.587235 -0.915518 -0.201077
0.325944 -0.687883 -0.486814
1.75492 -1.79904 -0.0994349
1.5125 -0.163595 -1.21747
-0.569798 -0.592759 -0.0291422
-0.394996 -0.776664 -1.28375
-4.10299 -1.49728 -0.79262
-3.45163 -1.20789 -0.407356
-0.881227 -1.66692 -0.185113
-0.65583 -0.182935 -0.164177
1.36371 0.968419 -1.2073
0.876424 0.530342 -0.265428
-0.338739 -0.0226996 0.388949
-1.57885 -0.220091 0.26258
0.0892474 -1.59774 0.209711
1.32677 -0.424725 2.04294
0.435092 0.206831 0.784429
-0.0864569 0.241245 1.77311
-1.82985 1.49895 -0.863875
0.526902 0.406353 0.228842
1.69548 -0.0652241 1.15482
-0.287486 0.0753711 -0.542938
0.0085622 -0.748838 0.516521
0.383474 -0.406328 -1.28515
0.632962 0.60219 -0.264225
-0.555828 0.0823092 -0.459562
0.209036 0.174375 -0.123957
-1.37191 -0.130395 -1.52448
0.0267278 1.29587 -0.545872
-1.17132 0.913355 -0.266967
-1.30223 -0.89576 0.0512041
0.745589 -0.646348 -0.138514
-0.107984 0.106345 -0.899395
1.41266 0.914154 -0.34389
2.18346 -0.17862 0.543405
0.194987 0.423921 0.799986
1.54954 0.777347 -1.79044
1.0431 -0.61325 -0.599937
-0.0107601 0.447612 -0.246123
-0.723095 -0.0778796 1.19558
-0.319595 -0.735658 0.573439
-0.982265 -1.49302 0.654999
-0.439411 0.469986 -0.392355
0.327071 -3.00577 -2.82793
-0.0296475 -0.374821 -0.0777897
0.251219 0.181133 0.486336
1.34864 -0.242685 -0.0823049
-2.07028 -1.02544 -0.418675
-0.51496 0.937653 -0.419652
-0.383852 0.995091 -0.418703
-0.072718 -0.45404 1.36815
-2.55231 -0.862963 -0.289262
0.888342 -0.710502 -0.951515
1.12799 0.609524 2.80651
0.64785 2.78829 0.0705141
0.492083 1.50356 -1.15551
0.947355 3.01391 1.66687
-0.156685 0.13809 -2.37015
-1.58375 -1.54179 -0.636573
-0.908852 -0.656862 0.66988
-0.0226713 -0.258806 0.1337
0.230251 -0.41151 0.284261
-0.167437 -0.0411673 0.417746
0.0822637 0.536176 1.81672
1.90344 -0.197624 -0.205037
-1.0358 0.285871 0.0985324
0.82265 -1.13811 1.36267
3.95902 0.307675 1.53016
1.13264 -0.169654 -0.722937
-0.513928 -0.0423173 -0.26128
-0.673764 1.15242 -1.09852
0.0755544 -1.15846 0.0263077
0.473859 0.414653 -1.83288
0.459342 0.0641536 -0.526724
0.551964 2.08186 0.94235
-0.920571 -1.13076 -0.367286
-0.0398121 -0.800105 0.660775
0.325328 0.261925 0.17618
0.544346 -0.317966 0.17817
-0.284557 -0.122559 -1.66397
-1.3874 0.362101 0.329115
0.500776 1.05768 -0.699465
-1.3824 0.907721 -0.649513
-0.018333 0.165079 2.05091
0.591911 0.385248 1.55228
0.371647 2.12586 -1.25764
0.0960726 1.74202 0.390471
1.75839 -0.237733 -0.0300105
0.295907 0.443879 1.36338
0.0969173 0.34952 0.818944
0.698359 0.555995 0.367789
-1.3772 -0.385188 -0.245243
-0.315229 -0.25368 -0.0239684
0.217982 -0.028586 -0.18851
-0.019438 -1.07837 -0.416176
-0.713583 0.868284 -0.574643
-0.106235 -0.402005 0.870299
0.278614 -0.520639 1.24705
0.328188 -1.6398 0.272362
-0.394997 -0.495106 -0.423966
-0.679702 0.266833 1.08298
0.0751527 -0.00167332 0.768541
-1.12769 0.328399 -0.36525
0.147844 1.74512 -0.0981497
-0.594141 0.160886 -1.03317
0.359793 -1.23024 -0.506203
0.00411108 0.0714462 -0.040347
1.48468 0.509963 0.56543
1.04867 -0.525576 0.838328
-0.355686 0.420525 -0.453852
-0.0571837 0.373158 -0.209878
-0.353853 -0.464587 -0.653164
0.845563 0.51349 0.686874
-0.557978 -0.0225302 -0.581572
-0.707101 -1.97876 -0.999884
0.174558 -0.569119 1.87249
-1.03935 -0.158976 0.08741
1.55055 -2.03744 1.16871
1.20213 -0.962798 -0.765624
-0.519366 -0.45242 0.456936
0.00512665 -0.773242 -0.755716
-0.361834 0.616223 -0.43264
0.598929 -1.45349 0.156217
0.899089 0.0941083 -1.07814
0.545797 -0.336388 0.325554
0.436201 -0.581313 -0.364665
-0.418842 0.0837058 0.0130692
-0.33911 0.263328 -0.281345
-0.0453054 -0.922712 0.331141
-1.34141 -0.824261 1.0415
-1.18383 0.103596 2.07288
-0.434091 0.262854 0.0696638
0.0197831 0.232737 0.276586
1.64228 -1.08337 -0.274325
2.24885 -0.828923 0.173353
0.311475 0.23474 0.016201
1.69283 0.645289 0.314648
-0.204985 0.546978 -0.828294
-1.80865 0.508247 0.244055
-0.810478 0.203386 -0.27535
-0.200031 0.906964 1.83548
-2.7725 0.20875 2.75985
-0.212729 0.86493 3.09937
-0.506447 -0.254706 -0.0590918
0.0474764 -0.348106 -1.77661
0.272131 0.194621 -0.544774
-0.311544 0.407844 0.0540891
-0.155813 0.862726 0.995764
-0.524947 -0.956326 -1.03802
0.805336 0.502459 0.43233
1.05602 0.157728 -1.76154
1.19601 -0.0518826 -1.98359
-0.364833 -0.359285 0.0181326
1.15057 0.576291 -1.66041
-0.329819 -0.735027 -0.903396
-0.403455 -0.69806 -1.00115
-1.40145 0.631377 -4.98444
0.77213 0.876723 -0.129914
1.43058 -1.15205 -0.262147
2.70223 2.87331 1.84672
0.697059 -2.6637 -1.37211
1.21293 -1.09556 0.155403
0.197596 -0.398781 0.709342
2.01112 0.617347 -1.14399
0.0969096 1.0039 -0.0856545
0.333342 -0.0678774 0.00383203
1.96182 0.153669 1.56885
-0.611598 -0.754046 1.93059
-0.739831 -0.804995 1.18294
1.25963 1.79646 -0.220905
0.790215 -1.26986 2.03253
-0.429412 -1.28098 0.307782
0.283915 -0.429908 -0.0088665
0.935025 0.177791 -0.307117
-1.68712 0.360086 -0.529093
-0.000608643 0.101592 2.29169
-0.77768 -0.669762 -0.986901
0.0268093 0.904504 0.757257
-0.122768 0.110455 -0.0357973
0.00967507 -0.71229 0.716583
-1.5474 1.10793 0.358795
-2.7745 -1.03856 2.35086
-0.371517 0.503854 -0.190757
-0.687519 0.694733 0.189177
-0.602919 0.385082 0.503824
0.591796 -0.0097986 0.623876
-0.455294 -0.973855 -0.135884
0.646799 1.95607 1.54762
-0.697794 -0.256519 0.52823
-1.02365 0.407029 -0.406701
1.35052 -1.45613 0.53292
0.475906 -0.732093 -0.598198
0.320684 0.379853 1.17703
-0.451572 -0.947229 -0.391176
0.00513175 -0.612101 -0.654891
-1.66179 0.793665 0.211343
0.893797 0.867572 -1.15482
-0.793004 1.21764 -0.371082
-0.60719 0.358023 -0.91804
2.88253 -0.0380098 -2.57263
0.918396 2.03901 -0.448474
-0.769732 -0.653971 -2.96375
0.177556 1.33009 0.881505
-0.614247 0.981042 -1.02788
0.398647 -0.497733 -0.438323
-1.67015 1.76748 2.32204
-1.81142 -1.22308 1.60612
1.04246 -0.483509 0.754332
0.103073 -1.04439 1.49959
0.0153387 -0.00789466 -0.0344107
-0.53011 -0.0249637 -0.470828
1.09561 -0.0460136 -0.351319
1.77579 -1.61694 1.30275
2.24304 1.65451 1.11206
-0.822377 1.1001 -0.458433
0.0479072 0.179683 -0.108698
0.301708 0.490297 0.0531995
-0.213421 0.0367461 0.591309
0.254878 2.38653 -2.49659
-0.124282 2.01252 2.73902
0.420372 -0.801995 0.684391
1.80354 -0.644429 -0.559211
-1.64909 1.42834 -0.583055
-0.126313 0.567721 0.593798
1.64376 -2.35955 0.189715
-0.21234 0.852264 0.635311
-0.190263 -0.984903 -0.0903202
0.583625 -0.93545 0.437192
-0.963274 -2.05192 3.25969
-1.48878 -0.747867 0.401419
-0.472541 -0.69769 -0.63649
1.73428 0.276476 -1.66563
-0.0230113 1.62659 -1.03265
-0.923888 -0.381517 0.552303
0.388842 0.00917687 0.606054
0.0909145 -1.01989 -1.61065
2.50848 -1.26274 1.47634
0.751853 -0.530401 -2.02969
-2.29828 -0.843118 0.205619
1.53802 -1.09516 0.0536409
2.28194 -0.677825 1.5872
-0.67404 -1.28094 -0.747929
-0.305089 0.36461 -0.988504
0.15124 -0.250975 -1.07357
1.24217 -1.70622 0.0362437
0.131071 -0.978373 -0.168031
1.64943 0.92096 0.186566
0.14681 0.489874 0.0174994
0.970887 -0.569712 0.889559
2.68237 -0.744869 2.53959
3.3655 1.56023 2.84729
2.55489 1.58935 2.35542
-0.545706 -0.414601 -0.311464
-1.82235 0.671203 -1.72549
-1.02235 0.144261 0.383805
0.320928 -1.84801 0.974265
2.68164 0.925496 0.271166
0.393443 1.3887 -1.22067
-0.109909 -0.517612 0.92868
0.27175 -0.952545 1.57334
1.50154 0.772062 1.55049
-0.269345 0.311156 -0.539585
-0.698459 0.593902 0.097418
0.725479 -0.428574 0.632866
1.32569 1.63522 1.13342
-0.154198 1.81313 -0.52792
2.25345 0.425732 0.166179
2.0919 0.488865 0.48382
-0.49763 0.967388 0.397131
-0.72426 1.37757 -1.18198
0.410135 -0.0937715 -1.20753
-1.25579 0.16577 0.455195
2.13711 0.184178 0.430405
2.41456 2.94874 1.27237
1.5152 2.03815 1.79899
1.12664 1.16785 -1.39753
-0.127171 -1.08939 -0.552529
1.00302 -0.20623 0.634359
-0.341442 0.747305 -0.904277
-0.0638513 -0.75004 -0.113883
-1.61094 1.38622 1.57959
0.37587 1.18392 -0.229035
1.00315 0.291804 0.485574
0.644873 0.391198 0.798781
-0.947012 0.952813 -0.537475
1.55582 0.0419158 -0.770347
3.34256 0.0826493 0.692233
1.45238 0.448343 -1.29316
1.83589 2.42115 -2.38696
0.614255 -1.26013 -0.725478
-0.0502165 -0.282185 0.968346
0.0159077 0.142196 0.0991664
-0.0591096 -0.915893 -0.0337636
4.21069 3.45322 -2.8863
2.51314 -2.16452 -0.418201
-0.513304 0.764534 -1.65034
-1.37997 -1.74222 0.150269
-0.569178 -0.0590528 0.160583
0.617281 0.204621 2.00299
0.0570831 0.00476571 0.0514899
-0.643927 0.679414 -0.423583
-0.63386 -0.675084 0.438293
-0.090747 -1.79258 -1.14097
0.223812 0.512671 -0.496226
-1.81945 -0.510227 -1.03409
-0.760807 -0.785115 1.07713
-1.46266 0.785785 1.60621
1.4223 -0.486263 0.0770653
-0.56694 -1.9719 1.33086
0.16145 -0.196943 -0.0267851
0.927014 -0.980557 -0.126492
-0.0372203 0.128191 -0.538776
1.19918 -2.44321 -2.00269
2.69803 0.122928 -0.427352
-0.885755 -0.28831 -1.12547
0.831417 -0.846314 -0.647661
1.39131 0.421109 -0.871399
0.560624 2.10093 -1.18217
0.0478732 0.602697 -0.657513
-0.439452 -0.496755 -1.2926
-0.763598 -1.46165 -0.157937
-1.26242 -1.11415 0.967337
-1.41807 -0.59964 -0.155894
-0.196841 -2.16902 0.900285
-1.32614 -1.28054 0.108128
0.0427038 -0.0411089 -1.23624
1.13018 -0.723194 -0.135317
-1.47446 -0.107073 0.959849
-0.146114 0.822415 -0.250309
1.0272 0.433338 0.639734
1.44523 -0.317257 1.40567
0.777201 0.0788953 0.0798215
-0.153283 0.351308 -0.365639
-0.126452 0.790237 -0.19684
-1.27292 -2.6799 0.0442244
0.214352 -0.266716 0.818148
2.5857 0.73203 0.709428
0.235917 -0.15972 -1.1396
-3.0318 0.971483 0.915467
-0.998214 -0.312277 -1.27778
0.503012 0.369571 0.048182
-1.47642 0.603671 -0.0971549
0.110207 -1.37693 -0.604569
-0.662432 -0.532187 -0.053418
-1.68549 0.774561 -0.93776
-0.632188 -0.423792 -0.427443
1.01513 -2.14131 1.96801
-0.156539 -0.120468 -0.162557
0.35654 -0.11083 -0.845029
0.982224 1.43791 -1.89434
-0.228875 -1.32861 -0.357583
-0.147206 -0.29154 -0.63014
0.417341 -0.404718 -0.651133
-0.483093 -1.1306 0.889421
-0.347486 1.10269 -0.136971
0.898228 -0.103188 -0.0177721
-2.20524 -2.37973 -0.756508
-0.284058 0.338278 0.343001
1.31052 0.707329 1.06463
-0.690667 0.413791 0.840222
-0.0900963 0.739421 1.40634
1.12077 0.656862 0.812141
-0.750209 0.192595 0.868596
0.162987 0.386838 -0.399449
-0.592899 -0.575047 -0.820685
0.45239 0.960587 0.573384
0.30389 -0.358524 0.66405
-1.58024 0.285739 0.444297
-1.58329 -0.19252 -1.96573
2.91845 -3.09965 -0.95373
0.345046 -0.0365571 0.289547
-0.380193 -0.969755 -1.07251
-0.0563506 0.409832 0.443567
-0.145967 -0.776438 -0.72622
-1.46443 0.871797 -1.0363
-0.230756 -0.799903 0.0510392
-0.0425117 -1.25262 -0.994517
1.67563 -0.748017 -0.036294
-0.467666 1.12985 1.40355
-2.25662 1.45528 0.2352
-0.32369 1.25415 -0.86934
0.724801 -1.50602 -0.860001
0.40539 -1.49462 0.322032
-0.483652 0.563755 -2.14066
-0.887961 1.24098 -1.77353
-0.619767 0.30335 -0.291777
0.878329 1.1935 0.717958
-0.0854363 1.77185 1.70238
-0.922372 3.43598 -0.753087
-0.363938 2.43858 -0.56492
-0.776505 2.80761 -0.321456
-0.805661 0.150715 0.499394
-2.2138 -1.12504 -0.447368
-0.919602 -1.41478 -0.999785
-0.4935 -1.2533 0.698686
-0.427427 0.802108 0.0663332
0.147704 -0.372031 0.468202
0.170574 -0.674507 -0.839709
-1.3998 -0.396752 1.28842
-0.594091 -0.0551944 0.331622
-2.25192 -0.691973 0.854816
-0.427196 -0.112463 2.42855
0.633621 -0.802987 0.473289
-0.447506 0.114679 -0.0728994
1.14075 -1.55272 1.11403
0.722568 -0.0422284 -0.374288
0.289776 0.407135 -0.502624
2.07707 -0.850525 0.987078
0.253351 0.501088 1.50322
0.950433 -0.62092 0.292744
-1.10832 -1.36117 -0.0937049
0.112797 1.37858 -2.97567
0.559801 -0.185526 0.895741
0.842655 0.601828 1.65435
1.02289 0.441221 0.227317
-2.05514 0.730704 1.96374
0.229551 0.646298 -0.0640732
-0.714389 0.457849 -0.657509
1.2897 -1.35575 0.192052
0.309295 0.340162 0.37046
-1.68283 2.60102 1.54382
0.278399 -0.282277 0.00340111
0.222828 0.151525 -0.181644
0.203273 -0.826395 -0.00228652
1.02035 -0.20404 -1.83708
0.0914899 0.371202 -0.0716798
0.626462 -0.0633047 0.921383
0.0316416 -0.433511 -0.570143
0.270041 -0.0329022 -0.883291
0.10076 0.766231 0.292571
-0.211156 -0.0983127 -0.921396
0.14535 0.583067 -0.684422
0.496671 0.136954 -1.46133
0.117534 -0.124315 -0.126201
0.794865 -0.229758 -0.695047
0.838909 -0.997439 -1.77339
0.525614 0.767581 -1.62606
-0.258884 0.0523444 1.12967
0.860125 0.691821 -0.794084
0.705597 -0.999507 -0.247957
-1.30579 1.70119 0.224294
1.88864 -0.578976 0.759042
-1.04923 1.70767 -1.36569
-0.085721 0.164374 0.288173
-0.759282 -0.11494 -1.05732
0.425439 -0.906716 -0.753411
0.176691 0.21439 -1.21162
0.0754373 -1.93704 -0.325156
-0.661574 -1.16292 1.44825
2.39929 0.162066 0.551513
0.69448 0.319649 -0.107308
0.649446 0.656479 -0.488473
1.11809 -0.444732 2.25492
0.421843 -0.152714 -0.419369
1.08834 1.50575 -0.283523
-0.212085 0.331507 0.623427
-0.261055 -0.157605 1.11792
-0.164052 1.87265 0.913742
-1.46551 -0.571854 -1.11586
-0.696157 -0.579263 -0.320136
0.310361 -0.44017 -0.413391
-0.137899 2.23636 -1.31877
-0.668479 -0.88283 0.814253
0.640642 0.633775 0.188094
0.346084 0.594529 1.89019
2.76557 2.15153 0.631028
-0.70311 -0.980872 0.879733
-1.75995 -0.454404 0.02617
-1.06223 -1.18643 0.14345
-1.51908 1.49909 -2.56829
0.266933 0.788993 -0.72048
0.534925 -0.405902 -0.0205189
-0.7946 0.349902 0.0734313
-0.794904 1.41707 0.332496
-1.09253 0.851531 1.43184
0.588616 -1.27109 -0.543473
1.20522 1.44444 1.00976
0.451685 1.04759 -0.172262
-1.24944 0.673612 -0.900676
1.54303 -0.326342 2.01613
-0.834988 -2.03428 -0.333075
-0.646275 0.56003 -0.199026
-0.49937 -0.00830538 -0.136387
0.263608 0.256151 -1.38749
-1.35248 -1.60839 -0.541616
-0.127868 -0.677208 -0.14035
0.650886 0.973435 0.923815
1.18261 -1.50094 0.96421
-1.31828 2.89326 0.476197
-0.18645 0.329762 -0.307804
-0.515802 -0.540511 0.565793
0.20289 -0.948035 0.453409
-1.32999 1.3419 0.35487
0.46148 -0.494362 0.0169598
-0.0580162 1.37141 -0.928142
1.36762 0.774572 0.774744
0.187499 -0.0243388 0.220864
0.168907 -0.498748 -0.133267
-1.05143 0.474859 -0.214559
0.685515 0.452195 -0.786987
1.32498 -0.654404 -0.0534845
0.367211 -3.83103 -0.628903
1.19188 -1.8008 1.55843
0.00110223 -0.640687 -0.300567
-0.881013 0.326283 0.237705
0.416697 0.497313 0.0222055
0.416954 -0.892774 -0.500278
-0.246582 0.0386514 1.82737
-1.03998 -0.413957 0.181057
0.587749 -0.932687 0.605382
1.33287 -0.191326 0.199444
1.30259 -0.263673 0.36108
0.0138632 -0.145586 -0.637939
0.0600874 0.752202 0.750011
1.43498 1.0151 -0.930195
-0.210962 -0.219642 -0.022904
-0.104732 0.639034 -1.30513
-1.03114 0.241684 -0.949623
0.436736 -0.0327307 -0.482252
1.19255 -0.0906099 0.0884424
-0.435224 1.06663 1.59952
-0.682868 -1.19763 0.809137
-0.72111 -0.112776 -0.475771
0.667269 -0.0899082 -0.861315
1.82397 -0.552756 0.351096
-0.602808 0.494927 -1.36287
1.27707 -0.98606 1.65538
-0.823875 -0.0182706 0.0644453
-1.12343 2.34426 -1.67594
0.208633 1.14259 0.294351
-1.00974 0.225708 -0.446597
0.117533 0.0178675 0.121899
0.608237 0.473544 1.08041
-1.44165 2.69312 3.31224
1.30392 -0.218058 0.739186
1.09823 1.22733 1.47696
2.38728 -0.218284 1.50222
0.430785 -2.34411 0.582922
-0.633581 0.451966 -1.09692
-0.988597 -0.572322 -0.759708
-0.374831 -0.343597 0.361144
2.58963 0.188613 -2.09779
0.436561 0.622568 -0.531846
1.35945 -1.45041 0.427085
0.0679664 0.025834 0.225101
-0.227714 0.503025 -0.693711
0.44755 1.26319 -0.600361
0.822409 0.627379 -0.475979
-0.460795 -0.400626 -0.141725
1.52723 0.703361 -1.23871
1.12302 -0.745989 0.458735
0.718645 -1.37423 1.31549
0.569574 -0.539791 0.209938
-0.157971 1.45074 -0.505849
-0.640702 -0.172981 0.438626
-1.48917 -2.68487 -1.43473
-0.445116 -1.47816 -2.09498
-1.94469 0.332653 -0.982097
0.227649 0.232738 -1.26117
0.00455735 -0.307095 -0.0660245
-0.719596 0.859546 2.23658
0.10832 -0.0204721 -0.343603
-0.18594 -0.0163208 0.274119
0.818601 0.315206 0.139977
2.17078 1.99163 -0.619403
0.888726 0.304491 -1.96464
0.323362 0.394093 0.573396
0.102884 0.465968 -0.0208498
1.39949 -0.196621 -0.591412
-0.79743 -0.17458 0.647619
-0.00787095 -1.3238 0.676509
0.656171 -0.0919086 -0.982043
0.776451 0.30535 -1.15423
1.0677 1.06025 -0.883999
-0.223395 0.0239302 1.75707
-0.773265 -0.0957847 -0.0436994
-0.0538702 0.939444 1.31366
0.144525 -0.488944 0.0786967
0.132639 -1.51754 -2.12672
-0.719964 -2.29382 -0.176199
0.050015 -2.20744 0.713464
0.23664 0.0551278 0.0843041
0.094716 0.359739 0.0798582
-0.166665 0.54344 -1.94589
-0.899351 -0.651904 -0.0135804
-0.553705 -0.196926 1.42267
-0.844897 0.374015 0.50846
0.486441 0.944377 -0.184734
-1.0977 -1.44724 -0.856171
0.197287 -1.12982 -0.92707
-0.511024 -0.629051 -0.118548
0.341971 -0.123684 -0.452774
0.697787 -0.619876 -1.24959
0.280047 -0.333597 1.11509
-0.544048 0.31981 -0.382993
0.0569405 0.803165 0.562882
0.278279 0.476393 0.104219
0.708694 0.339109 -1.06249
-0.000372559 -0.496846 -0.185825
0.473262 -0.659192 0.63473
-0.221831 0.339075 -0.254051
-0.882376 1.20413 -0.219304
0.524004 0.441801 0.0679169
-0.818471 -0.822268 0.571927
0.815304 0.401965 -0.306944
-1.87098 0.210755 1.44195
-0.54448 0.341781 0.836623
1.06183 0.877107 -0.665794
-0.441884 0.26825 0.411588
-0.282216 -0.0646357 -0.149855
-0.64496 1.13217 -1.51527
1.11489 -0.59832 -1.05221
0.528888 0.408465 -0.382164
-0.0121577 -0.159091 0.441823
-0.901856 -0.0237309 -0.598725
-0.0506964 0.172963 -0.612016
0.764962 0.0925032 0.050221
0.406353 1.2167 -0.116301
0.418497 0.401029 1.82148
-1.05846 -0.775494 -1.17994
-0.0175005 -0.143303 -0.479705
-0.349745 0.631597 -0.327382
0.712237 -0.593839 -0.307787
0.088702 0.225564 0.164851
-0.711377 0.422503 -0.169872
-1.62703 0.762633 0.0487573
-2.19402 0.0232415 1.86494
-0.174281 0.345018 0.656996
-1.05885 -0.997938 -1.69106
-0.267909 0.452122 -0.209649
0.2754 -0.0554466 0.43801
0.383071 -1.05119 -0.495284
-0.275581 1.2213 0.26978
0.218488 0.232819 0.577102
1.72398 -0.0880714 -0.456926
0.30155 -1.00736 0.729559
-1.3382 0.84684 -1.68521
0.20342 0.486174 0.0307676
1.22567 0.467082 -0.650147
0.711169 -0.627464 1.80608
-0.120106 0.251988 -1.12143
1.85575 -2.24416 2.20113
-0.834993 1.09799 -0.678495
-0.134896 -0.317848 -0.435712
-0.729171 0.584003 0.00672799
0.60634 -0.339886 0.347898
0.023436 0.602737 -0.989373
0.306682 -1.3168 0.182158
0.806163 1.58471 0.987525
0.687658 0.279373 -0.354478
-0.37478 0.00795729 -1.40744
1.12673 -0.461596 -0.999277
0.0835973 -0.460522 -0.107801
0.87127 1.12693 -0.0456428
-0.467792 1.45841 0.209902
-0.429183 -0.0615897 0.0588813
0.434019 0.728662 0.00403912
-0.991137 0.87658 0.120027
-0.0938791 0.394788 -0.834332
-1.30398 0.386811 -0.536531
-0.121135 -0.210214 -0.0736212
1.09496 1.23179 -0.12132
-0.22069 0.0355046 -1.49548
-0.739417 -0.194087 -0.253349
0.987566 0.646736 -0.590231
0.487626 0.315069 -0.0874853
1.0149 -0.083702 1.16584
-1.07561 -1.04817 0.496338
1.38279 -1.42563 -0.565509
-0.156311 -0.184559 0.770019
0.147138 -0.278779 1.22225
-3.37628 -0.342657 -3.13666
-1.48884 -1.69135 0.107155
-2.06961 0.448133 -1.22623
0.548627 -0.258467 0.268758
-0.225573 -0.0896102 -0.274115
0.428009 -0.335455 -0.240756
-0.443557 -0.604868 -0.0448181
-1.32223 0.650987 -0.914505
-0.830478 2.56883 0.93518
-0.465071 2.23349 1.06427
0.418717 0.913235 -0.465149
1.01097 0.791952 0.0676832
-0.290473 0.120553 0.408759
-0.64931 -0.607803 0.796096
0.143128 0.316093 0.30649
-0.934101 -0.199587 -0.00328897
1.84995 0.0770695 0.999404
-0.489705 1.06311 -0.753651
0.936843 1.07932 -1.02974
-0.547403 0.659827 0.189135
-0.678556 0.973764 -1.41867
1.35541 0.698616 1.03789
0.218465 0.14456 -0.163467
-0.655304 -0.732249 -0.642812
-1.04503 0.0525034 -0.935518
0.269805 0.709739 0.122183
-0.248096 -0.0340153 -0.686176
0.229975 -2.27316 0.574647
0.080909 -0.881106 0.881171
-0.851496 -0.0259106 -0.590225
0.199627 0.949724 -0.26526
0.628001 -0.817836 -1.81975
-0.0123745 -0.750412 -0.822956
-0.194293 -0.189771 0.0568296
0.921151 0.874502 -1.92955
-0.821363 0.0883135 0.234264
1.89402 0.0737999 -1.2899
1.42106 0.628459 0.0636709
1.64801 -0.884706 0.10765
0.332218 -0.220577 0.792339
1.00357 0.726364 -1.85336
0.025607 1.39174 -0.868693
0.387514 -1.03976 -1.80627
0.679894 0.693773 -0.950142
-0.141951 0.837679 0.384948
-2.30632 -1.18138 -0.321054
-0.357836 -0.00590137 -0.418091
0.509673 0.574946 -1.1
-0.685122 -3.53461 -0.950031
-1.40088 -0.542385 -1.16232
-0.742207 0.245863 -1.15801
0.269898 -0.219541 -0.545653
0.271388 1.72183 -0.484938
0.386096 0.845159 0.180067
-0.201876 0.238719 -0.212436
0.323679 -4.1904 1.93713
0.518859 -0.438617 -0.459829
-0.169339 2.46911 1.51583
0.10736 0.433295 -0.298531
-0.279137 -0.145686 -0.397538
-0.80383 0.507268 1.05088
0.0680923 -0.574202 0.484033
-1.47163 -0.481874 -0.260762
0.063391 -0.254299 0.450375
-0.241269 -0.82166 -1.19858
0.129483 -1.37635 1.44723
-0.19453 -0.457555 -2.08773
-0.349186 1.35288 0.75546
0.180975 0.150193 1.18652
-1.25335 -0.622809 -0.288211
-1.17087 0.686042 0.771698
0.300747 -0.275131 -0.266633
0.800159 0.61921 0.78054
-0.477379 -0.535708 -0.106724
-0.638393 -0.366525 -0.329414
-0.331116 0.261267 0.539871
-0.874545 2.00229 -0.0980208
0.203219 0.574341 0.451789
-0.422655 0.696181 -0.900373
0.852117 0.135542 -1.15268
-0.0389388 0.727138 -0.183813
-0.569305 0.572728 0.249189
0.206856 -0.525011 -0.0334002
-1.38507 -0.576455 1.42262
0.869078 -0.221567 1.30469
1.51939 -2.95068 1.09068
-1.22206 -2.72523 -0.276985
0.992464 -4.70203 -0.346275
3.80103 0.839462 -0.203815
0.951926 0.394194 -0.559415
0.495992 1.71606 1.03243
0.281883 0.844984 -1.61138
0.0474479 -0.419516 -0.422755
-0.400201 -0.469212 2.27574
-0.421906 0.240703 0.856578
0.466457 -0.45854 1.93731
0.801699 -1.71089 0.94265
0.725297 -0.471687 -2.4197
0.731591 0.946639 -1.6319
-1.01576 0.49475 0.0534059
1.74009 0.0701083 -3.72338
0.432059 -1.32167 -1.25506
0.30495 0.294206 -0.658062
-0.897346 -0.782366 -1.19616
1.18798 -0.498702 0.111838
0.726819 -0.914177 -0.711195
0.446768 0.251878 -0.227892
-2.81174 0.667808 0.834672
0.108603 1.3589 -0.0920896
0.139248 -0.399515 0.203628
0.438308 0.0434553 0.371954
-0.779924 0.337282 -1.20387
0.869103 0.771854 -0.495962
0.484395 -1.2622 -0.796406
3.11326 0.776942 -0.700923
1.77096 0.428084 0.740104
-0.461594 -0.0575181 0.291404
-1.39256 -0.249604 -0.346567
0.692905 -2.53187 -1.53139
0.510505 -0.444556 1.34404
-0.331095 1.49385 -0.22187
-1.35941 -2.11265 -1.03294
-0.266975 -0.645714 -0.986279
-1.99226 0.521355 -0.319367
-0.00123323 0.609526 -0.599726
-0.206898 -0.303477 0.550107
-0.546231 0.018571 1.02771
-0.0298071 0.923037 -1.07861
0.407554 -1.11717 -0.180715
-1.21304 -0.319759 0.280213
-3.70223 1.31855 -0.914566
0.383499 0.320587 -0.290266
0.421508 -0.0310357 0.489431
-2.31581 -3.04282 0.0363271
0.104516 0.304876 -2.04542
0.816787 -0.352911 0.784351
0.523558 0.912948 -0.605751
-0.734955 0.336393 1.2654
-0.673809 0.574821 -0.0266754
0.0585714 0.200205 0.163346
-0.671654 -0.0159633 -2.89482
0.202386 -0.473214 -0.122501
0.299339 -0.0588932 -0.413221
-0.615033 0.366957 -0.743163
-0.789716 -2.07434 0.579134
-0.374515 -0.399535 0.193677
0.933167 0.708709 -0.201661
-0.0801998 0.660155 -1.62436
0.157285 0.365307 -1.03801
-0.284319 0.778931 0.601793
-0.201314 0.648909 -0.738508
0.61212 -1.25958 -1.04202
-0.672528 -2.10935 -2.53006
-2.27054 -1.67762 -2.17138
1.25304 1.10293 -2.67021
-0.133078 -0.396996 0.156158
0.552839 0.924749 -0.0817145
-2.21571 -0.0915953 -0.512984
0.525274 -1.91123 1.36352
-0.580781 -1.47023 -1.24901
-0.641248 -0.128432 1.25038
-0.35545 -0.593902 -0.208792
-1.37108 -0.280455 -0.356457
0.280421 -1.11145 -1.16117
0.0788822 -0.329286 -0.258051
-0.496056 -0.300648 0.484794
1.15218 -1.35373 -0.853883
0.373062 0.987287 0.0613877
-0.0480036 0.0179194 -0.0570327
-0.153149 0.486801 0.190747
0.894865 -0.41479 1.79539
1.53208 1.04756 -0.31772
-0.234073 0.477439 0.238429
0.771415 1.4508 0.659309
1.04479 0.261333 0.0478386
-0.233858 0.143727 0.472661
0.72806 0.919553 0.482393
2.05465 -0.848872 -0.395015
0.118764 -0.509417 0.492123
0.972828 0.685849 -0.418825
1.23615 0.826833 -0.772055
0.508099 0.0718941 -0.428461
0.485866 0.249347 0.249463
0.319451 0.47881 -0.249457
0.183422 0.101617 -0.294795
-3.72512 -0.886866 -0.545883
-0.342052 -0.518434 -0.152702
-0.367905 -0.259963 -0.906222
0.0133287 0.23914 -0.615667
0.597383 -0.980101 1.68204
0.931368 -0.0589192 0.81068
0.420977 0.993684 1.54584
1.03709 -0.865289 0.152866
0.263992 -0.165105 0.781622
0.510295 -1.29696 -0.123349
1.34433 -0.176085 0.770901
0.830882 0.683352 -1.18236
0.0179286 -0.0951285 1.88007
-0.249044 0.153098 -0.757451
-0.593222 0.456818 1.17773
-0.0965316 -0.804055 -0.203884
0.492372 -0.35425 -0.505412
1.32097 -0.332808 -1.85604
0.406401 -2.36399 0.720719
1.56086 0.524073 0.743368
0.46832 0.781203 1.02381
-1.06327 0.0651082 -0.0730689
1.62498 2.05596 -1.79783
0.0206522 0.004474 0.13991
0.789689 -0.442827 0.544977
0.0802673 -0.653921 1.60404
-0.0348049 -0.231408 -0.503784
-0.990256 -0.357659 -0.161299
0.0149841 0.400099 -0.886797
1.04618 0.709282 1.00235
0.471668 -0.0663786 0.0759951
-0.521924 0.0611021 -0.641433
-0.597986 -0.867535 0.496378
0.736375 -1.35463 0.591006
-1.33026 0.342562 1.2227
-0.169358 0.182638 -0.46631
0.630256 -0.469547 -0.627818
-0.158191 -2.7685 1.15832
-1.342 -1.92396 0.0391581
0.616736 0.518131 0.600614
0.317299 -1.11083 1.97199
-0.828021 -0.0617783 -1.27154
1.53086 0.240187 0.299911
-1.2479 -2.90443 -0.826079
-0.781215 2.26875 -0.743696
-0.306488 1.92038 -1.04424
-0.859627 -0.556975 0.143774
0.359987 -0.539978 -0.562848
1.50607 0.329475 -0.819825
0.544728 -0.628878 -1.23993
0.794925 -1.36717 2.09332
0.243615 -0.0132319 1.4323
-1.2027 0.661413 -0.79869
1.09469 -1.87205 -1.20759
0.555834 -0.615564 0.0171998
-0.74801 -3.18087 2.41669
0.617344 -0.358645 1.55221
0.31624 -0.773176 -0.95332
-0.180074 0.736086 0.143823
0.418366 0.850242 0.274024
1.61647 -1.14631 -0.0531979
0.129968 0.683849 -0.290749
1.89831 2.29115 -0.564433
-1.11928 1.18036 -0.137649
0.449482 -1.56919 0.848261
1.03998 -0.443719 -0.146534
-0.471082 -0.815365 -0.939224
0.568867 -0.275818 0.099363
0.93013 -1.12354 -0.851381
-1.45575 0.377906 -1.67301
-0.0122063 0.224993 -1.05332
-0.571487 -0.113515 -0.684329
0.0689923 1.49641 0.232912
-3.63482 -0.66968 -0.652356
-1.26895 -2.15062 1.16913
-0.46736 -1.08611 0.0232355
0.320876 0.601373 0.40731
-0.768092 0.624226 1.19766
-3.66331 2.49158 -0.258391
0.644346 3.26234 -1.39843
2.33406 2.27721 -0.766631
-0.215205 1.76391 0.197152
0.356999 -0.441592 0.554578
0.232899 -0.00731148 -0.672481
0.179688 0.182623 0.390366
-0.0518654 0.158928 0.488459
0.0274737 -0.223932 -0.325035
0.0128453 -1.28137 -0.110644
-0.151568 0.256232 -1.10325
0.734775 1.5173 0.958668
0.494498 -0.211802 -0.443442
-1.52972 -0.398555 0.657815
-0.0834523 -1.87968 1.96966
-4.16921 0.675173 -0.216088
-1.90907 1.81941 1.71912
0.877538 -0.113803 -0.784185
-1.61357 0.357053 0.0624609
0.743564 -0.404026 -0.212858
-0.760561 -0.111328 0.153125
-0.0576479 -0.136858 0.0546603
-0.528448 -0.661005 0.650857
1.36729 -0.230805 0.653195
-0.108922 -1.00035 0.254122
2.237 0.920388 -0.166047
-0.417159 0.632261 0.651373
-0.569137 0.515052 1.37092
-0.165982 -0.38216 -0.176067
0.20232 0.185541 0.174309
-0.220868 0.00498883 -0.353303
0.480696 -0.542636 0.951407
-0.0429395 -0.0497033 -0.427395
-1.61957 0.784285 -1.22815
-0.681037 -0.337237 0.0970992
1.5931 -0.936846 0.707748
3.37361 1.05192 -1.32202
2.12051 -2.72925 -0.277969
-1.18154 -0.105126 -0.0654945
-1.05967 1.07982 -1.9782
-0.789699 2.35499 -0.459889
-1.67536 0.125006 -1.45825
-0.966722 -0.596135 -0.91295
-0.82285 1.80021 -0.505166
-0.0817676 0.884717 -0.972248
0.281514 -1.24442 -0.113386
0.396138 0.715372 0.388906
-0.219972 0.103076 1.11394
-0.255962 -0.265056 0.628235
-0.603413 0.0285697 1.33323
-1.61412 -1.72736 0.90682
-0.160209 -0.503754 0.15144
-1.4413 1.43889 0.192793
0.246776 0.479895 0.0668975
0.0233071 -0.201725 0.135336
0.0868707 0.865483 -0.33608
-0.360927 -0.90984 -1.86813
0.0744822 -0.449439 0.243507
0.111763 -0.629796 -0.0950369
-1.89152 0.237774 1.82096
-0.00597314 -0.581624 0.3442
0.0265359 1.38341 0.0962762
0.734211 -0.432073 0.200417
-0.630318 -1.19032 0.591856
1.46449 -0.545404 1.03386
-1.24645 0.557352 -0.824238
-0.229261 -0.814432 0.344665
0.362913 0.588811 -0.978979
-0.921779 -0.396817 -1.25889
-1.67956 -2.82247 -1.14753
1.34942 0.370188 0.199403
-1.29286 1.41614 1.1445
-2.11599 -0.89604 -1.06384
-0.980511 -0.931992 1.0968
-1.24878 1.61523 1.56786
-0.713313 -1.49544 0.762275
0.325129 0.90967 1.06948
-0.0895063 0.000547836 0.134669
0.729772 -0.485125 -0.292759
-0.278706 -0.685069 -0.324672
-1.21089 -0.496185 -1.12845
-0.135006 -0.968666 -0.128204
0.217421 0.0432304 0.529215
0.13912 -0.488232 -0.107791
-0.0218137 0.0841042 -0.277924
-0.36492 0.396852 0.0318446
1.63144 -1.26387 0.70176
1.10441 -1.06505 -0.224369
3.71037 -0.88936 -1.23668
-0.0238663 0.451169 -0.232012
-0.0341561 -1.13889 2.96927
-0.403532 -0.598932 -0.577068
1.69122 -0.791266 0.844864
0.749127 1.11048 0.0536333
1.02232 0.37004 1.49699
-0.733838 0.332062 1.02838
0.0739275 1.24826 1.23461
-0.0141128 0.334782 -0.223932
-0.59934 0.917195 0.528203
-0.0784819 -1.07435 -1.16753
1.5849 -0.778701 -0.871026
1.20907 0.296814 -1.87939
-1.56549 -0.79185 0.962105
-0.411571 -0.24632 -0.261427
0.641122 -0.271505 0.703862
0.524699 -1.68892 0.604663
-0.394701 -0.315942 -1.6696
-1.24825 0.306523 0.287883
-0.396459 1.10933 0.60533
0.31458 0.64013 -0.765347
-0.548014 0.568446 1.45494
0.275626 0.0360944 -0.56137
-0.251492 1.2116 0.440377
0.394724 1.05936 0.437765
-0.262742 0.105781 -0.0130648
-1.09608 0.388082 -0.300797
-0.972876 -0.160802 -0.563319
-0.277485 -0.1403 -0.0676677
0.0858032 -0.24064 -0.0266878
-0.126868 0.0689309 -0.0465637
-0.25518 0.39023 0.110095
-1.68952 1.9036 1.22153
0.670825 0.529077 0.65517
0.669918 1.27576 -0.795436
1.48514 -1.81459 -0.344476
0.485172 0.850148 -0.653412
-0.355781 0.74968 -1.87277
-0.380914 -0.885238 0.621067
0.419746 -1.22069 1.03912
-0.386134 0.134973 -0.745904
-0.285843 -1.3355 -0.0272753
-0.660262 1.82229 0.997328
-1.89684 -0.666905 0.177335
-0.173395 -0.452949 -0.349035
0.118 -0.377481 0.446228
0.534332 -1.63478 -0.346231
-0.312118 0.309452 -0.176533
0.453614 -0.254461 -0.659745
0.280797 0.495932 0.136534
-0.508775 1.30388 -0.358375
-1.01252 -0.83405 0.818496
1.10332 1.1748 1.74624
0.613155 -0.780915 -1.42863
1.20901 1.51474 -1.29659
-2.28557 -0.0818962 1.0901
-2.32678 -1.39227 -0.427634
-0.502126 1.10879 -0.110001
-1.38077 1.40134 1.19306
1.40663 1.52654 -1.09119
-1.36147 -0.523091 0.315058
-0.556584 -0.0627971 -0.05112
-0.126099 -0.310245 -0.436459
-0.205376 -1.37832 0.20131
-0.739602 -1.11199 0.224047
0.382018 0.74971 1.37131
-0.642392 3.22079 -0.485258
-0.297508 -0.0138977 -0.0786393
-0.687721 -0.948273 -0.453638
-0.0875337 1.37106 -0.00519839
-0.670226 -1.16476 -2.52294
-2.39546 -0.974961 -0.806067
-0.538029 0.0622664 0.342253
0.0517719 0.796246 -0.72411
0.176156 0.0608938 0.480842
1.2039 0.241483 0.213963
-0.429412 -0.393996 -0.738138
0.0217326 -0.0820402 -0.133179
0.199884 -0.641286 -0.514199
-0.0153136 1.12969 1.05368
-0.468225 0.595123 1.11361
-0.309987 -0.741599 -1.45164
0.158339 0.20721 -0.732405
-1.17102 -0.748452 -0.356255
-1.0314 -0.777385 -0.452225
-0.51138 -0.00268076 -0.359767
0.0216366 0.896144 -1.56012
0.199473 -0.193786 -0.000129251
0.0883839 1.47836 2.14217
-0.211336 0.338118 -0.264033
0.932238 -0.713132 0.0718227
0.30051 -1.18142 0.66342
0.385628 0.616656 1.79898
0.465849 -0.232666 0.859244
-0.254602 0.616933 0.523381
0.0540022 1.57267 -0.293928
-0.526241 0.463369 0.304487
0.415778 0.0482175 -0.904781
-0.86405 0.244285 0.223992
-0.869295 0.0951329 -0.413004
0.918946 -1.34879 1.04681
1.58461 1.40685 -0.371959
1.04736 1.21605 1.35402
2.22713 1.41211 -0.73538
-2.44405 -2.41819 -1.96638
-0.83249 -2.79797 1.77097
1.84689 -2.66774 -0.781489
0.835484 -1.06831 1.79705
-0.101233 -2.32989 -1.02445
-0.681816 0.365966 0.0879725
-1.02168 -0.128858 0.498006
0.607302 -1.19492 -0.610119
-0.0527515 0.319592 -0.394427
0.662952 1.18299 1.16192
0.413763 1.71791 -0.835965
-0.830213 2.0432 0.165945
0.42167 -0.998788 0.70523
0.0013562 -0.118569 -0.218762
0.221324 0.28269 -0.174867
0.11167 0.0895242 -0.455823
-2.38717 -0.792113 0.367443
0.224382 1.25611 0.899772
-1.83304 -0.311827 -0.11504
-0.212935 1.45534 -0.0478594
-0.744835 -0.157701 -0.348577
-3.33782 0.0635681 0.822265
-0.284518 0.662349 0.889365
0.269988 -1.15297 -0.519969
1.94384 -0.941265 -0.135768
1.30764 -1.58274 -0.108185
1.98989 -0.41002 -2.22749
0.0892571 -0.270833 0.418531
0.219399 0.116284 -1.40681
-1.10552 -1.02588 -0.858067
-0.65594 -0.376298 0.479788
-0.634315 -1.15572 -0.16385
0.941466 0.59086 0.85647
-0.162869 -0.386279 1.14339
-0.484054 1.21343 -1.22991
-0.00243587 0.188801 0.511745
-0.225884 -0.0364419 -0.48169
0.358535 1.47844 -0.206288
-1.06214 0.862541 -1.13876
0.204136 1.15825 1.87009
-0.990731 -0.303614 -0.470497
-0.832943 -0.817324 -0.00524659
0.324805 -0.574922 0.347716
-0.371114 1.06599 0.245937
1.37736 0.314919 1.18407
0.222143 -1.59353 -1.08614
0.234978 -3.10831 -1.5603
-1.29375 -6.16947 -1.75299
-1.69883 -2.04688 2.66075
-1.60765 -1.6749 0.0126343
-0.726018 0.15604 0.224098
0.417888 -0.587685 -0.197682
-0.00781682 -1.23805 1.08911
-0.223086 -2.0129 -0.641045
-0.605766 0.43535 -0.256326
-0.164472 0.359548 -0.791036
-0.0181187 -0.607674 -0.930709
-0.158715 -1.10493 -0.704369
-0.000247526 -0.0411149 -0.928176
1.07743 0.791042 -1.23739
0.207314 -0.899778 -0.734064
-0.0630273 -0.134143 0.372503
1.29418 1.15703 -1.32417
1.24718 0.20113 1.50326
-0.241498 0.573029 0.801851
-3.70254 0.121592 2.06934
0.322802 -0.245169 0.126654
-1.85656 -0.1069 0.947854
-1.043 0.703624 -0.00336282
0.259834 0.0131888 0.682158
-1.27581 -0.735763 -0.467337
-0.23045 0.0882946 3.93487e-05
-0.0516118 2.26675 0.713796
-1.4223 -1.1934 0.00314763
0.109984 -0.130348 -0.182575
-0.3354 0.162134 0.247594
-0.252172 -0.851682 -1.29562
0.911469 -0.186998 -0.958075
-0.360892 -0.359523 0.20296
-1.10376 -1.72245 0.375693
1.95375 -0.653932 2.41734
-0.0905887 0.977626 -0.0929775
-1.09469 -0.265369 -0.47471
1.51591 0.353705 -0.790095
-0.609944 -1.98832 1.25601
-0.244657 0.171259 -0.0407515
-0.772347 -0.632785 0.778587
-0.364925 0.164349 -0.340097
-0.152934 -0.688845 0.773825
-0.333037 0.871166 0.186489
1.4537 -0.295831 0.645346
0.793059 -0.0917708 0.0784252
-0.080946 0.305745 -0.981546
0.0416328 0.558819 -0.709681
-0.456699 0.0516103 -0.110449
0.514583 0.255101 -0.0190425
-0.362578 -0.593643 0.274794
-0.740396 0.609031 -1.11378
1.19362 0.691074 1.12446
-1.25357 0.700735 0.0802761
0.200093 -0.273081 0.445645
-1.06285 0.738377 0.329571
-0.161323 0.983564 -0.318027
0.189574 1.78969 -0.228869
-0.374209 1.08284 -0.0501977
1.25401 0.248252 -0.219246
0.227366 -0.311064 -1.38087
0.743907 -1.05305 0.0838427
0.279694 0.116029 0.0295255
1.14943 -0.387026 0.27892
-0.706363 -1.43945 -0.611314
3.24066 -0.992518 0.091093
-0.227353 -0.397063 0.416028
-1.03397 -0.698607 -0.300458
-1.7102 -0.371307 -1.01016
-0.853362 -1.76447 -1.0727
