-0.207895 0.290255 0.869597
-1.95267 -2.12594 -0.0784001
-1.06555 -2.89129 0.317633
-1.22501 1.11698 0.359449
0.508059 -0.405279 0.576337
-0.75967 0.11828 0.183219
1.06255 -0.372173 -2.1161
0.847684 0.497211 -2.39254
-0.3765 1.51389 -0.665517
-0.864626 -0.727506 1.13128
-0.407745 1.83682 -0.27138
0.925604 0.0491408 1.13004
0.955363 0.336331 -2.35132
1.5249 2.27285 -0.238485
0.150455 0.434866 -0.127202
-0.154834 0.0560416 -0.370337
0.682235 0.212951 0.524093
-1.27196 -0.688101 -0.34052
-0.453987 0.293968 0.729391
1.38811 -0.246621 -0.214707
-0.742401 0.826669 0.939421
1.81128 0.926103 -1.26934
0.797039 -1.20977 -0.479944
0.638703 0.190277 -0.995876
1.07415 0.851127 0.68313
1.58495 -0.876825 0.796135
-1.07169 -0.0471596 -0.203929
-2.47882 -0.807944 0.201525
-1.49459 0.584301 -0.142961
-1.7539 0.757665 -0.0139063
-1.45099 1.13512 -0.113586
0.663122 -0.516843 0.123491
0.427128 2.64827 0.332956
-0.564548 1.2214 0.884744
0.63072 0.0683766 0.300312
1.05552 0.10103 0.453948
0.966871 0.405878 0.0209631
0.339026 1.47911 -0.946119
-1.58757 -1.28122 -0.678059
-0.921893 -1.44225 -0.507186
1.39775 0.957018 -0.698498
-0.295704 0.328775 0.172448
0.798612 -0.636609 0.24311
-0.0898755 -0.505397 -0.838884
-0.565169 0.579856 -0.358496
-0.239706 0.141878 0.29915
0.169638 0.416136 -0.927861
0.739076 -2.0392 0.706968
0.824185 0.205777 -1.37014
-0.206903 -0.46579 -1.16466
1.539 -0.903865 0.0274246
-0.322189 -0.408772 0.119805
2.24354 -0.131934 -3.11979
1.9957 -2.25209 0.763296
-0.440686 -4.81893 0.344614
1.02783 -1.87949 1.24656
-0.591057 -1.20634 0.500251
0.143049 -1.24753 2.02937
-0.404776 0.223751 -0.139923
0.471141 0.240605 -0.770368
-0.373418 1.07247 -1.41419
0.124695 0.442361 -2.47447
-0.631909 0.7686 -0.0420408
-0.55433 -2.05814 -1.28458
-0.0184829 -0.154181 -1.14562
-0.0333402 -0.246009 1.65483
0.590249 0.73509 -1.19929
1.59965 0.184656 0.109967
0.908753 -0.351443 -2.22631
0.704787 -0.72415 1.50764
0.0249011 0.0675371 0.131
-0.968955 0.263977 -0.119301
0.0428134 -0.498574 0.977946
-1.82991 1.0269 1.01189
0.478876 0.529121 0.417143
0.587472 -0.0184609 0.399693
-1.07732 -1.34107 -1.43286
-1.68818 -1.10951 -1.09871
-0.615915 0.187551 -1.02862
0.872787 0.15531 1.41297
-0.14838 -0.866338 0.263369
-0.323968 -0.123577 0.127525
2.46747 -2.06406 -2.74327
1.80574 -0.100053 -1.11474
2.16176 -0.239957 -1.01139
-1.64268 -1.84543 0.0613551
-0.0085249 0.785528 0.0507166
0.40642 -0.312868 -0.462092
0.38218 2.29347 -0.264295
-0.433722 1.09689 -0.248672
-2.9135 1.56173 -0.849343
0.654091 0.501664 0.830686
0.707177 -0.661751 0.155232
-0.0251192 -0.900447 0.0450685
-0.877521 -0.310301 0.598949
-1.51114 1.23911 -0.73939
-0.366552 0.683194 0.675088
0.226067 1.00774 0.569752
0.700133 -1.72024 1.06622
-0.634609 -0.443653 0.907452
-0.446207 -1.03735 1.14194
0.253569 0.0887988 -1.15934
-0.231315 0.583003 0.344915
-1.04359 -0.2914 -0.0882648
-1.28059 0.049038 -0.980253
-1.1072 1.61595 0.125521
-0.784103 -0.575889 0.937896
0.0153471 -0.18841 0.689243
0.564368 0.601419 0.190177
-3.44635 0.797868 0.945745
-1.87142 0.017012 1.59638
0.885523 -0.905511 -0.0123246
0.15119 -0.305537 0.146529
-0.232031 0.875692 0.207623
2.30201 0.123587 -0.398644
-1.49718 -2.25843 2.68278
-1.24023 0.0125378 0.923191
-0.188755 0.473518 0.0230125
0.227828 -0.929039 -0.26224
-0.289222 -1.28389 1.274
-0.702618 0.944741 1.43856
-0.75088 -0.245987 -0.900431
0.800242 -0.245162 0.154394
-0.191763 -0.371632 0.287702
-0.514967 0.130566 -0.673541
-0.635845 0.55955 -0.211632
-0.171338 -0.109813 -0.172641
0.472202 0.947081 0.547502
1.76633 2.7053 -0.526538
1.2217 3.20742 1.15971
-0.606936 -0.622264 -0.206284
-0.36357 -0.32236 0.990338
-1.15286 0.598541 -0.493037
0.958224 -2.08133 -2.40577
1.12038 -1.52399 2.16995
0.673233 1.60983 3.3019
1.77413 -0.25455 1.29296
-1.73812 0.0356177 -0.517379
-0.592478 1.67881 -2.22296
-0.347476 0.143508 -0.357856
0.152084 1.09147 0.319145
0.70222 -0.221601 1.1599
-0.260475 -0.442886 0.169279
0.566079 -0.677766 0.98884
-0.883145 -0.29629 -0.179765
-0.573866 -0.543039 0.675091
-0.00016574 0.0123729 1.01262
-0.185346 0.156258 1.05084
-0.387905 0.650263 -1.97297
1.04422 0.909408 -0.763561
-0.450433 -0.49141 0.779219
-0.432227 -2.41842 0.684794
1.5269 0.731126 -1.01721
1.77762 1.22724 -0.613928
0.967471 1.3774 -0.274207
3.11487 -0.7826 2.44131
-1.32994 1.53257 1.60437
-0.049475 -0.173719 -1.23522
-1.05405 0.889921 0.583946
-0.324889 0.121624 -0.186669
0.349249 1.17482 1.31359
-0.113424 -0.142147 -0.0632728
-0.107133 -0.351264 -0.484084
0.298286 0.144231 -0.591725
1.11152 0.920186 -1.66237
0.417168 -0.689077 -1.34018
-0.131585 -0.14047 -0.360427
0.545525 0.608098 0.667543
0.516551 0.0627981 0.608687
0.769917 0.326485 -1.09193
0.827662 0.308508 0.611682
0.326048 0.257113 0.0360684
-1.76562 1.20582 -0.346237
0.697902 -0.170477 0.282868
-0.0732675 -0.0808728 0.664277
-1.1802 0.921375 -0.831142
1.20225 0.28371 0.0787297
0.590318 -0.239197 -1.22739
0.368243 1.92463 1.80399
0.034569 -0.25831 0.387272
-0.555025 -0.408253 -0.00623767
0.512139 0.409237 -0.0803888
1.12812 0.635833 -1.94756
0.523751 -0.320402 -0.239294
-0.143739 1.09746 -0.438261
0.696207 -1.11289 1.44543
1.40629 2.52612 1.54105
-0.501315 -0.735405 1.30292
-0.0444507 0.188518 0.767626
-0.472973 0.353006 -0.78394
1.40989 0.133502 -0.918098
0.483844 -0.322801 -0.087361
-0.0183599 -0.169041 0.354357
-0.676679 2.31054 1.28731
0.19919 0.735532 -0.113314
0.168946 0.200571 -0.21761
0.906268 -0.00533901 -0.247038
0.252099 -0.33009 0.447629
0.743267 -1.16839 1.15687
-0.375909 -0.552691 0.993154
0.375015 -0.577299 -1.10483
-0.631456 -0.875824 1.13906
1.1274 -0.258585 -2.37235
-2.16838 -0.86229 -1.50144
0.733921 -0.544527 1.2121
-0.0691836 0.162427 -0.107821
0.36324 -0.357793 1.06382
-1.21712 0.642625 -1.91656
-0.848359 -1.36847 0.0714799
-1.11112 1.32887 -0.454754
-1.70069 1.32016 2.04347
2.53993 -0.047559 1.99285
1.01491 -2.67549 1.06876
0.256824 0.255255 0.443522
0.779885 0.0753902 0.915947
0.612734 -0.52695 -0.245539
0.369986 1.34954 -0.102341
1.07869 -0.981737 -1.71506
-1.64802 -0.652919 0.557497
-1.43034 -0.510873 0.912022
-0.0493075 0.108032 0.251287
0.577111 1.29897 -0.170416
-0.279077 0.667398 -0.63989
-1.58895 0.355845 -0.0118369
-0.830014 1.18347 -0.834653
-0.480838 0.174134 -0.474541
-0.852564 -0.042191 3.14348
0.423789 -0.55752 0.491191
-0.585566 0.52905 -0.737137
1.61638 -0.532941 -0.189222
-0.498378 -0.24916 0.0604578
1.28379 -1.45394 -0.0499132
0.276841 -0.462691 -0.226459
0.892732 0.872653 -0.995465
1.1805 -0.162313 0.196037
0.865199 0.551242 -0.367211
-0.387231 0.322607 -0.341543
1.73231 0.0642789 0.432557
-2.42797 1.02438 0.713846
-0.590162 -0.625645 0.593166
0.852506 -2.0667 0.232281
0.613934 1.84708 -1.21277
-0.126865 0.522361 -0.553929
-0.513322 -0.150559 0.271417
-0.48565 0.432407 0.201298
1.65041 -1.33249 -2.03463
-0.0977675 -0.38915 1.06389
0.000234076 -0.494391 -0.789272
-0.0230434 0.589756 -0.155193
2.12921 0.775013 0.193426
0.942064 0.65564 -0.228268
-1.0478 1.68864 -1.31915
0.227954 1.98481 -1.21521
0.808577 2.23704 0.0732167
-0.135279 -0.243943 -2.51959
0.0589907 1.54939 -0.214579
0.565466 0.745877 2.09853
-0.0184243 0.414263 -0.336799
-0.113922 0.0652194 0.707709
0.326418 -0.363132 -0.165168
0.532933 0.116404 -1.67096
-0.395557 -0.856757 0.952033
-0.18545 -0.591269 -1.01601
0.483674 0.598155 -0.540676
-0.728884 0.446284 0.567905
0.0384265 0.367042 -1.01438
0.571074 0.211283 0.57537
-0.45761 0.527566 0.406608
-0.570258 -1.11318 -0.510156
-0.479127 0.613252 0.00918075
-0.550711 -0.418514 0.270912
-1.46269 -0.134657 0.0954628
0.192455 0.029059 -1.05316
-0.778842 2.16618 -1.51555
-0.193972 -1.06124 0.0630571
0.478 0.201379 0.904812
0.64592 0.421206 -0.505843
-0.149409 -0.473998 0.0378201
-0.841974 0.349814 0.559149
-0.251689 -1.06659 0.4208
1.75429 0.452948 -0.351271
0.489257 0.320288 0.238506
-0.299339 -0.536096 -0.604193
0.950122 0.692162 1.75093
0.441045 0.498472 -0.0105317
2.36657 1.01085 1.30512
0.857598 -0.340422 0.038428
2.50901 -2.10804 2.18159
2.51989 -1.88902 1.08694
1.21191 0.43291 -0.81607
0.364291 0.637793 -0.529639
-0.204543 0.0509692 1.50568
-0.435589 0.443516 2.22087
1.99843 -0.900669 2.3217
-0.156359 -0.737748 -0.140219
-1.71452 0.78977 -0.0635591
0.557167 0.873287 0.636589
0.649387 0.415897 2.8603
0.509699 0.157161 -0.107766
0.766941 -0.64677 -0.790504
-1.30891 0.549997 0.15532
-0.981722 1.74991 0.0471514
-1.6803 0.160079 0.824264
-0.757149 -0.347297 2.60856
-0.430599 -0.67128 2.98062
2.23413 0.316459 0.790658
-0.240825 0.0495452 0.358851
1.33662 -1.77212 1.15706
0.0846065 0.0519947 -0.0761264
0.527834 0.591962 -0.873801
0.321079 0.833861 1.03343
-0.15152 1.109 -0.348107
0.512917 0.336888 0.468683
0.00773184 0.0139491 -0.197615
-0.758133 0.273679 -0.651516
1.77976 0.0816088 -1.50111
0.079926 -0.328673 -0.348809
0.368485 0.0822095 -0.0985837
-0.602774 0.499255 0.174667
-1.21267 1.07156 -0.823888
-0.100766 0.0781893 0.565571
-0.739035 1.85325 0.773341
0.569735 -0.329622 0.358109
1.32156 -0.398883 2.07113
-1.48125 0.906265 0.791918
-0.0182276 0.474775 -0.65601
-0.248593 -0.591666 0.188035
1.01692 -0.150364 1.09296
0.684952 -0.305165 1.06656
-0.135094 -0.321165 -0.982167
0.131666 -0.42133 0.524877
-0.910142 0.635163 -0.134052
0.21474 0.44974 0.0926085
-0.403423 -1.03446 -0.0754577
-0.168076 0.192278 -0.214535
-0.523294 -0.861124 0.764423
-1.01207 0.2762 -0.618339
1.11113 -0.68481 1.07569
-0.291048 -2.02539 -0.296636
-0.547964 -0.119218 0.847211
-0.635465 0.782056 -0.90933
-0.354329 -0.71683 0.545996
-1.17062 0.0203026 -0.976037
-0.315712 0.914066 1.87787
0.847716 -0.848657 -0.0142441
-0.231948 0.0634218 -0.0277436
-2.24456 -0.54088 0.979247
0.113542 -0.807748 -1.17147
1.00187 1.11242 0.660956
-0.123908 0.542515 -3.39379
-1.08482 -0.752836 -1.0684
-0.790036 0.526668 0.650887
1.72652 0.543848 -1.26799
-0.249405 -0.247322 -0.0384605
0.460491 -0.0376259 -0.588496
0.150686 -1.04833 -1.59591
1.16647 -2.99775 -0.16846
-0.73773 -0.910292 0.262769
-0.913332 -0.0693121 -0.294753
0.224567 0.640459 -1.08375
-0.121671 0.184991 -0.404536
0.0300733 0.664437 0.120604
-0.323722 1.13205 0.258479
0.744394 -1.11545 0.622052
-0.065739 0.0650875 1.44504
-0.601419 0.231477 1.54116
0.386491 0.90067 1.96579
0.351617 -0.485908 0.00799798
-0.645272 -0.00671412 -0.180301
-0.190202 -0.646922 1.18026
-0.88027 -1.42535 0.0206479
-2.87818 0.942565 1.01912
-0.224937 -1.58608 -1.22261
0.796581 2.6715 -1.22403
-1.17535 0.280815 -0.339204
0.418099 0.529106 -0.321274
0.409774 0.297363 -0.0337052
-0.609058 0.372204 -0.811696
2.50795 -0.755654 2.16902
-0.30442 -0.493497 0.952251
-1.14983 1.80771 -0.698436
-0.0875058 0.206175 -0.157611
-2.5599 0.097474 -1.23721
-0.0280546 1.37433 -0.593129
-0.516274 0.932708 1.63428
0.12601 -1.5105 0.67131
-1.08762 -0.535949 1.52146
-0.416871 -1.58631 -0.412748
-0.181145 0.900374 -0.0148086
0.0800032 -0.0439034 0.195284
0.0800032 -0.0439034 0.195284
0.494649 -0.0476104 -0.0231492
-0.0943812 -0.377952 -0.728816
0.298291 0.600225 -0.737606
-0.154678 1.12672 0.090512
-0.389616 0.104822 0.0676426
-0.549018 1.18908 0.978198
-0.180703 -0.497734 -0.730608
1.42433 1.09179 0.191017
0.18806 0.81975 -0.0830539
1.41878 0.514428 0.601027
0.756843 0.372675 0.693168
0.887795 -0.790841 0.233806
-0.0839601 1.50389 0.728193
-0.482414 -0.188012 -0.888401
1.07577 -0.601719 -5.95616
0.387071 2.27418 0.652154
-1.69012 0.782591 -3.072
-3.47645 0.689586 0.279947
0.437197 0.164142 0.742149
1.74691 0.903445 -0.836208
-0.235032 -1.22943 -0.500185
-0.74012 0.5208 -0.170821
-0.089986 -0.287129 0.0387055
0.90285 -0.699692 -0.135125
-0.279081 0.503802 1.77929
1.93673 1.15533 0.134037
-0.133608 -0.563316 0.714754
-1.14424 0.328345 -0.286155
-1.6046 0.127247 1.62126
-0.487256 -1.32474 -0.151072
1.49347 0.563493 -0.393174
1.97686 -0.728476 -0.714308
0.461085 1.12824 -0.41796
0.0767717 0.16075 -0.0436876
1.21301 1.09776 0.120852
0.132443 0.219052 -0.148783
-0.0497539 0.314581 1.33858
0.56136 -0.162045 0.448378
-0.920004 -0.00651057 2.32276
-0.343006 -0.00668983 -0.0269268
-0.828863 0.117599 1.52805
-0.330854 -0.0621162 -1.21622
-0.180217 0.0771585 0.214089
0.434245 -0.0566096 -0.41259
3.05364 -0.259605 -0.966363
-0.217584 -1.40392 -0.771604
-1.4125 0.436132 1.17185
0.709325 -0.254132 -0.140253
0.478269 0.756971 -0.9698
-0.920074 0.266011 -4.05827
-0.993207 0.309396 -0.759718
-1.05379 -1.08186 0.334504
0.517934 1.18862 -0.969184
-0.499806 -1.18677 -0.487532
0.94476 -0.859146 -0.761035
-0.764896 1.32305 1.1281
0.806243 -0.617031 1.12159
-0.475429 1.47916 1.70029
2.77554 1.14049 0.298489
0.410513 -0.266784 0.587211
-0.807024 -0.567306 0.352247
0.0691637 2.28565 -1.04961
-0.0978556 1.16091 -1.89641
1.16108 -1.21148 -0.274742
-0.0842014 0.371025 -0.255894
-1.04694 -1.33046 0.411681
1.05283 0.0519406 0.0841388
-0.144014 1.69387 -0.691101
-0.49275 0.962529 0.49248
-0.576198 -1.20509 -0.0329912
-2.97163 0.332731 -0.791988
-2.61172 2.11324 -0.309018
-0.236151 0.163605 -0.161896
-0.178094 0.787466 -1.95011
-0.329152 0.117723 -0.809897
0.780201 -0.0848133 -0.612306
-1.38645 -1.12967 0.766978
-0.44813 -1.24174 -0.262622
-2.10205 1.04187 -0.24396
-0.0648077 -0.785063 -0.595892
1.18659 -0.130844 0.641442
1.44379 -1.15518 0.740079
-1.16004 -0.453129 -1.23012
-0.598392 0.741067 -0.872111
0.509766 -0.0559795 -0.177452
-1.85863 -2.80314 0.0180132
0.0568145 0.591392 -2.50065
1.14487 1.44174 -3.67157
0.194652 0.396526 0.793544
1.11527 0.0493355 -0.756239
-0.216947 -1.66546 -0.0759932
0.867591 -0.64151 -0.0371688
-0.286276 -0.174617 -0.539155
-0.138351 -0.675435 0.288838
-0.983742 -0.116664 -0.392532
-0.528498 -0.372534 0.6443
-0.631123 -0.400349 0.520094
-0.23349 0.0852033 0.259825
0.375355 -0.38454 0.338272
0.328704 -0.156324 0.0143174
-0.530896 0.0169729 -0.878791
0.418434 -0.716282 -0.449755
-0.72971 -0.50354 1.20229
-1.4333 0.121981 -0.163065
-0.0711212 0.151363 -0.881552
0.572665 -0.956724 -0.607738
0.423574 -0.159761 0.657332
-0.294684 0.030423 -0.765952
0.472776 0.190527 1.20928
-0.339288 0.270953 0.228008
1.72932 -2.16309 0.577073
-0.146289 0.682458 1.15464
-0.573001 -0.385672 0.862878
-0.165789 2.57376 -1.54285
-1.6905 1.13483 -2.12531
1.38311 -1.80265 -0.414956
0.0801592 0.225275 -0.106951
1.38203 0.95242 -1.32348
1.3225 -0.470416 1.33413
-0.452328 -0.348827 0.609978
-0.112003 -0.938403 0.168872
0.297611 0.0282876 -0.747904
1.68224 0.752152 -0.818627
0.202061 -0.919275 0.28885
-0.457076 0.982477 -0.613001
0.616558 0.962159 -0.856555
0.454703 -1.52568 -1.11663
0.404672 0.667527 1.75365
-0.520064 0.0808587 -1.62388
-0.566213 -0.899687 0.238501
-0.837396 2.72788 -0.839357
-0.146251 -0.105987 -0.0646669
1.092 0.0783063 0.64234
-0.129375 -0.48439 -0.111701
0.0433349 0.41625 -0.401461
-0.433362 1.34909 -0.0193755
-0.633336 -0.29668 0.399826
0.60818 -0.222283 -0.397706
-0.636555 0.681825 -0.0158153
0.728199 -0.160487 0.80006
-0.619645 -0.186855 -0.143902
-1.28851 3.16961 -1.40452
1.05883 0.32014 -0.85539
0.873183 0.502333 -0.640385
-1.57938 0.391979 0.175228
-0.0453823 0.265062 -0.491051
0.277918 -1.34511 -0.871519
-0.111032 -0.456413 0.398719
-0.268171 -0.07537 0.407959
0.610645 0.20883 1.88496
-0.277785 0.808853 0.246836
-0.543591 -2.16297 1.29755
1.03127 0.257323 1.76528
0.652035 0.582848 -1.86914
0.132516 0.10563 -0.494441
0.815128 1.01428 0.125577
-0.823181 0.813858 -0.490589
-0.84392 -0.461059 0.0104643
1.13971 -0.882807 0.938439
-0.56925 0.721511 -2.71438
-1.49137 -2.8193 -0.345613
-0.201901 1.28443 -0.238041
-0.22297 0.397332 0.0271425
0.0953479 0.257347 0.217861
-1.67264 1.21551 -1.37656
-1.03794 0.710007 1.18021
-0.12877 1.14697 0.659448
0.285372 0.941811 -0.627256
0.0385886 0.382914 -1.24079
-0.0159346 0.130309 -0.46216
0.534716 0.0508482 0.902007
-0.821072 1.64989 0.791852
0.253704 -0.448537 0.735348
-0.085361 -0.358812 0.415934
-0.694368 -0.0195816 -0.441884
-1.84163 1.63165 0.843874
0.157966 -0.205957 -0.472502
-0.457338 -0.200703 -0.702502
-1.4092 -0.653829 -1.47225
0.260728 -0.0400212 -0.281613
-0.105089 0.838254 1.37666
0.276493 0.715909 -0.926662
-0.625913 -0.850619 -2.35672
0.928171 -1.55166 0.506271
-0.827399 0.0220738 -0.0694019
-0.252438 -2.35273 1.2467
-0.528006 -0.21351 0.277836
-1.099 0.860907 -0.944564
0.428596 -0.678181 -0.850674
-0.0903969 -0.42147 -0.775373
0.1622 -1.12534 -1.83864
-1.00358 0.257991 -0.314809
0.028648 -0.831901 0.517424
0.625922 -0.0443239 -0.474148
1.27941 0.833107 -0.498919
-0.446618 0.364507 -0.895744
0.950179 0.496891 0.298102
1.44387 0.487108 0.413802
1.86843 1.3804 1.22855
-0.10561 0.383518 1.01677
-0.409826 -2.73968 0.242535
-2.12262 -0.497556 -0.0558546
-0.549552 1.87515 0.0345418
0.261876 0.0180671 -0.471452
0.367027 -0.352723 0.632947
-0.909875 -0.567203 1.40495
1.80071 0.0942678 0.488287
1.15821 0.711264 -0.513173
-0.0715837 0.944774 -1.81872
0.77901 1.1722 0.0758714
0.426976 -0.182532 0.230458
0.992958 -0.851599 0.643572
-0.421765 0.986192 -0.498737
-0.346463 0.889703 -0.785134
-1.09375 -1.3002 -0.619513
-0.766174 -0.635485 -1.40601
-2.04464 -2.11691 -0.0153047
-1.02557 -1.40019 1.06205
1.05472 -0.242805 -0.0354494
0.15806 -2.0044 -0.0835035
-0.385416 -0.286485 -0.27757
1.25119 -1.06135 0.06939
-0.0960434 -0.190016 -0.0532261
-0.271938 2.33985 0.512877
-2.01185 -0.531406 1.71492
-0.938071 -1.26519 -1.23166
-0.627402 1.90666 -0.742543
0.604981 -1.18325 0.184925
0.30625 -1.18004 -0.375543
0.324099 0.542511 1.15102
-0.669141 0.102904 0.876057
-0.232909 -1.78338 -0.355693
2.44142 -0.48637 -2.26861
0.0586706 -0.3798 0.0959301
-1.98006 0.530599 -0.338894
-0.793891 1.35105 0.531018
-0.760212 -0.0472706 0.144656
0.423614 -0.434467 -2.31281
-0.997075 -0.43571 0.509014
-0.770639 0.233318 -0.972352
0.361783 0.251702 -0.640283
0.93464 0.0863833 -0.0282818
1.35566 -0.750527 -0.952658
0.831507 -0.813846 0.491409
-1.03651 0.0844332 0.611117
-1.67636 0.680726 -0.433187
0.678303 0.361404 -1.5087
-1.1853 0.652277 -1.78476
1.44296 -0.504473 0.922357
0.390926 -0.903414 0.546181
0.987213 -0.00604795 0.158799
-1.16263 2.67034 -1.87068
-0.042325 -0.170733 -0.446736
1.73023 0.734075 1.07792
2.35776 1.49354 -0.602254
0.39391 1.81825 -1.30448
-0.803753 0.585149 0.348433
-0.363865 -0.247332 0.660262
0.0726018 1.0074 0.0600868
-0.902392 0.2502 0.40148
0.221718 -0.90548 -0.892858
1.02204 -0.619543 0.390714
-0.392608 0.149384 -0.174635
1.4312 -0.622783 -0.299221
0.3977 0.399136 0.247494
0.418055 1.38907 -0.45521
0.367027 -0.134536 -0.654876
1.99078 -2.60169 0.48426
0.186586 -0.149496 0.0939271
0.268104 -0.241664 -0.172672
-0.424829 -0.271178 -0.219862
-0.626157 0.59466 0.444199
-0.58411 -0.187555 0.164883
-0.0559408 -0.398613 0.0576691
0.981811 -0.467281 1.16024
0.805805 0.838119 1.11816
-0.886418 0.384104 0.756674
0.449787 1.22611 0.237062
-0.321766 -0.792062 -0.643182
0.778538 0.130468 -1.15587
-0.819238 -1.06949 0.692418
-0.982492 -0.723132 -0.409984
-0.482395 -1.12168 0.233263
-1.60095 -0.705363 -0.391211
0.214153 0.334258 -0.43391
-0.786004 0.797719 -0.28343
0.578405 -0.38941 -0.651924
-0.962804 1.23254 -1.11579
-1.02367 -0.0884631 -0.0294776
-0.104593 0.13247 -1.57657
-1.52448 -0.590613 -1.59312
1.65323 -0.059939 -0.126508
-0.316652 -1.36516 0.802115
-1.18372 1.14936 -1.03294
0.333455 0.709481 -0.66381
0.960575 -0.00998755 -0.629279
3.08081 -1.53179 0.657173
-2.40184 0.49788 1.62422
-0.499178 0.993945 -0.73044
-0.17098 -0.478677 1.18356
-1.34436 -0.0736364 1.22159
-0.734215 -0.485714 2.0559
0.261651 -0.372058 0.122839
0.123261 0.395283 -2.0011
-0.148452 -0.248824 -0.103469
0.0760292 -1.21536 0.197391
-0.496586 1.57343 1.32582
-0.161784 -0.840804 -0.160729
0.571419 0.318965 0.609902
0.859199 -2.37591 -1.19566
-0.609757 -0.392766 -0.450917
-1.58879 -0.0696754 -0.317793
1.8088 -2.15899 0.409514
0.636817 -0.994993 0.266845
-0.0967968 -0.724821 1.29737
0.0295462 1.51441 0.996021
-0.54778 0.385018 -1.40206
0.381583 0.223928 -0.0453768
0.392994 1.29568 -0.533326
-0.833729 1.35493 -0.0777481
-1.25175 -0.256824 1.14787
-2.39904 -0.380654 -0.719887
0.0600283 1.06328 -2.40021
-0.264587 1.33769 0.0272877
0.0472232 -0.285463 0.899988
-1.29621 1.34462 0.70036
0.22045 -0.34371 0.128794
0.910502 -0.00306601 0.757924
0.561928 2.04986 0.04051
-0.179499 0.502914 0.333385
0.0660569 0.657331 -0.297915
-0.444933 -0.505936 -0.764693
0.753723 1.19129 -0.00653068
-0.32906 0.15488 -0.36587
0.00321018 -0.466764 0.695607
-1.15203 -0.991272 1.54913
0.345125 -0.217078 -0.406444
-0.0688861 0.332351 0.216113
0.423658 0.252594 -0.459661
0.744712 -0.160707 0.447182
1.06662 1.3331 -1.66183
-1.18669 -2.18941 0.131429
0.534292 -0.719351 2.27065
-0.0474987 -0.182344 -0.0307296
0.19676 -1.56486 -0.777858
0.207729 0.22745 -0.090964
0.235087 -1.07735 -0.220399
-1.61068 2.0417 0.515187
-0.390607 0.258439 -0.103103
-1.13198 1.77764 1.79153
-0.428504 -0.482957 -1.01978
-0.117662 -1.39666 1.48074
-0.274346 -0.805551 0.146307
-1.07651 -0.00604056 -0.628115
-0.396171 0.60081 -0.448727
0.0188419 2.08918 0.868086
1.06438 1.31164 -0.725572
0.289036 0.471765 0.637432
0.48268 0.475177 0.0893257
0.809364 0.591332 -0.894458
-0.730425 -0.619904 0.0850912
-0.248103 -1.32668 -0.800062
0.0937655 0.361533 0.940831
1.34782 1.31221 0.9756
0.129816 -0.0709554 1.92281
1.1883 -1.0805 0.916203
-0.16113 0.226463 0.520971
1.61998 -0.5494 0.074729
-0.0685466 -0.60505 0.625946
1.42183 -0.15712 -0.923611
0.0226217 0.23571 -1.35593
0.049606 -1.21075 -0.0832422
1.07871 -1.93828 -0.846925
0.76776 0.754291 1.3058
-0.796023 -0.433171 1.61156
-4.25433 -1.62896 0.391293
0.785244 0.549397 0.969191
0.224282 -0.301719 -0.365934
-1.1817 -0.541939 -0.615797
0.110662 1.05331 -0.481678
-0.00425721 -0.912483 -0.10618
0.0508595 0.361468 -0.0821799
-0.543752 0.6284 0.305772
0.0587603 0.25637 0.499805
-1.02207 -0.0800444 -0.564321
-0.510556 0.0399354 -0.875764
0.486292 0.310232 -0.0553205
-0.499607 -0.69203 0.555702
0.105793 0.312126 -0.0440684
0.301996 -1.14493 0.282952
0.192001 -2.39035 -0.477178
-0.991427 0.131276 -1.18515
-0.551244 0.677551 2.07249
-0.845019 -0.691656 -1.31725
0.738639 0.0609929 -0.910752
0.395232 0.0100461 0.0138227
-0.570973 -0.307437 -0.806429
-0.566129 -0.683278 0.788728
2.86676 -2.3539 -3.92033
1.29312 0.764066 1.57302
0.0673082 0.21723 -0.339446
-0.38158 -0.147414 -0.0373242
0.0330726 -0.937747 0.0487462
-0.224891 -0.236849 0.0404484
-0.093145 -0.205389 0.166908
0.405239 -0.203709 -0.221315
-0.748633 0.636506 0.217417
-1.36225 -1.03664 -1.2635
-0.0360341 -0.0414182 0.286486
-0.0692113 0.145925 0.982359
0.0209155 0.11106 -0.172804
-0.0854845 -0.707148 0.716982
0.32 0.717794 -0.242677
0.455282 1.67298 0.0447259
-0.543776 -0.00602955 -0.97755
0.614525 -1.94385 1.57386
-0.49505 1.051 0.181197
0.173095 -0.777328 0.204416
-0.938057 -0.770369 -0.275082
1.17592 0.179771 0.509595
0.357301 -0.716602 -0.398873
-0.234648 -0.339729 0.718987
0.95039 0.0387803 0.231904
0.757684 -1.15022 0.423692
-2.31479 -0.297172 0.455385
-1.04855 0.814488 -0.254886
0.475637 0.912088 -0.721266
2.00683 3.18978 -0.789045
-0.0371844 -0.156653 1.1254
-0.576192 -1.81633 1.15738
-0.970149 0.34693 0.262853
0.483587 -0.0730044 0.399862
0.0347744 0.612039 -0.267137
0.0630574 -1.06589 -0.0303936
1.3425 -0.662429 -0.258793
-0.0890536 -0.693169 0.245395
-0.661728 -1.40811 -0.0136272
-0.0287918 -0.260822 -0.0606289
-0.923541 -0.472562 -0.123911
-0.576396 0.098806 1.16124
0.126092 -0.217873 -0.340216
-0.187157 -0.345101 -0.630171
-0.145306 1.03289 -0.109825
-0.739116 0.514484 -1.05084
0.0451309 0.151582 0.534812
-0.413924 -0.934159 0.251839
1.81853 -0.237087 -0.0583324
0.775582 0.232931 -0.621623
-1.00164 0.412963 -0.521578
-0.553516 -0.13347 -1.15178
-0.800207 0.296864 -1.75276
1.72813 1.84721 0.574892
0.786909 -0.00330305 -2.42892
0.0324112 0.0124437 0.0754683
-0.059887 -0.717787 0.380239
-0.14385 -0.0559026 -0.184668
-0.808374 0.469388 -0.566607
-1.45777 -0.00381747 0.463385
0.899874 -0.113531 -0.0941917
0.769265 1.81149 -0.699247
0.715911 -1.14301 1.10689
0.81243 0.760739 2.28475
-0.34079 0.0448249 1.15661
-0.441322 -0.990424 -1.73016
0.261203 -0.300772 0.0867338
0.624723 0.176452 0.983185
-0.229301 -1.10541 1.38828
0.968988 0.769403 1.64756
1.11322 1.8647 1.19657
1.3104 0.211649 1.13881
1.27355 0.232071 -1.78939
1.29347 -0.621304 0.153412
-0.185886 -0.152406 -0.89367
-0.0118505 -0.777525 -0.20485
0.135166 -0.71772 -0.588719
0.03171 -0.495681 0.37357
0.433739 -0.0575562 0.688304
0.0991861 -0.728839 -1.77738
0.832569 1.12907 0.487149
0.0662855 -0.963789 -0.383618
-0.581646 -0.411729 0.89818
-0.267827 0.156918 0.163146
0.250837 -0.0237614 0.264456
-1.02005 0.334877 1.34851
0.576106 -0.535168 0.465585
-0.706799 1.12449 0.35361
-0.339054 -0.277177 0.0285714
1.37933 1.81439 -2.12103
-0.990094 2.82486 0.178593
0.239657 -0.43932 0.313568
0.978227 0.822152 2.03019
-0.502681 0.125257 -1.10904
0.253261 0.167222 -1.10222
-0.57673 -0.189144 -0.388845
-0.143752 0.375581 -0.112999
-1.26222 0.685688 0.418368
-1.76044 1.26742 1.55766
0.54916 1.11425 -0.722843
-0.247165 -0.126849 0.888706
-1.67062 0.215811 1.16886
-0.580624 -0.135558 1.14104
-0.503466 -1.438 -0.149881
-1.04965 0.351275 0.740554
-0.395584 0.354 -0.182001
0.344298 -2.04466 -0.61006
0.0357609 -0.416063 0.0473356
-1.23163 -0.0580134 -2.90236
-0.630944 -1.06837 0.767622
0.626258 0.116881 -0.338474
0.468177 1.75559 2.2756
-0.817081 0.92184 -1.20316
1.98396 -0.421988 0.974062
0.303831 -0.180094 -0.248085
0.416847 -0.597719 0.514867
-0.67537 0.805218 -0.536627
-0.39239 0.10416 0.302737
-0.530564 0.544753 -0.817214
2.14023 -1.1481 -0.16728
-1.61944 0.429992 -0.699128
-0.67892 -0.405942 -1.74828
0.0153369 -0.28331 -1.26199
-1.40604 -1.45369 0.152137
0.494812 0.84369 -1.16063
0.542092 0.266731 -0.419632
0.707866 1.02074 -0.188504
2.64743 -0.926689 0.504497
3.45632 2.55062 0.819854
1.09332 -0.909751 -1.14876
0.00949151 -2.00091 -0.971741
-2.25898 -1.91716 0.0335523
0.162776 -0.665006 -0.503398
-0.0143119 0.4169 -0.344648
-0.731682 0.374216 0.414536
-0.843468 0.824914 2.44445
-0.134259 -0.0729018 -0.435337
0.73687 0.0824471 0.398794
0.404492 0.63347 0.288291
-1.35335 0.87512 -0.0904871
0.211738 0.396136 0.212499
1.80772 -1.82563 -0.0575635
1.11117 0.541985 -1.25297
0.893107 -0.750757 0.413772
-0.19383 -0.0222839 0.100376
0.220452 1.28274 0.970694
-0.456371 -1.4626 -1.12102
-0.129424 -0.131422 0.0469115
-1.52089 0.227501 -1.12222
0.638952 0.594989 1.05748
0.451709 -0.42909 0.0130955
-0.0907708 3.27285 0.0691293
-0.221156 -0.817607 0.349772
-0.268034 0.283037 0.23824
0.105564 0.165074 1.39244
1.39078 -1.3951 -0.634119
-0.42527 0.469743 0.895106
0.561017 -0.946419 -0.276763
-0.11559 -0.0532981 -0.226804
0.581266 0.099762 0.0826331
0.66223 -0.421936 -1.00824
0.637346 0.533597 -2.47249
-1.6618 0.847444 -0.0912728
-0.948822 -0.188591 0.722754
-0.0705741 0.0801419 -0.338715
0.746277 0.409202 0.890245
-1.72776 0.661545 0.8472
1.70524 -3.83934 3.83653
0.555915 1.65384 0.345538
-0.73477 -0.561647 -0.655331
0.0442223 0.0622176 0.409201
1.34359 -0.160109 -0.783582
-0.453203 0.584243 -0.270208
0.812125 0.212854 0.381097
0.220231 0.373791 0.299802
0.768384 0.875385 -0.321608
0.322912 0.550258 -0.137582
-0.515499 0.888754 0.825492
-1.03374 0.374954 2.15644
-0.577597 0.218156 0.581825
-0.410862 -1.0769 0.97498
-1.78489 -0.867283 -1.22028
0.134135 1.51252 -0.318949
0.199079 0.504337 -1.10481
0.33194 0.835963 0.550525
-0.229446 1.46022 -0.380589
-1.43484 0.500684 0.255835
0.718492 1.41512 0.83833
-0.177622 -0.310413 -1.42545
0.37844 0.0775797 -0.196507
0.220803 -0.353581 -0.464479
0.0160913 -0.0172752 -0.362466
0.38458 -0.867527 0.17187
0.970059 2.26764 -0.871615
0.514895 0.203546 0.86481
-2.99738 -0.916959 1.33432
-0.182517 0.856089 0.644961
-0.594647 1.85091 0.282622
0.417422 0.255955 0.229818
-0.206009 0.390074 0.816089
1.20739 0.647999 -0.414177
1.56917 0.591981 -2.18291
-0.271031 1.5912 -0.784116
-0.484831 -0.657739 -0.320461
0.115073 -0.312957 -0.750724
0.598868 0.797016 -0.297117
1.48847 -0.528052 1.8205
0.678502 -1.65714 0.386312
0.299499 -0.0799095 -0.805757
0.417812 0.652443 0.179168
-0.678051 0.367603 -1.08073
-1.07289 0.418253 0.658463
0.249541 0.20429 -1.21132
-0.491365 -0.354041 0.123893
1.70042 0.327001 -0.519309
1.01774 0.00240619 -0.433364
1.88726 0.180979 -0.321294
-1.12067 -1.37743 -0.761367
-1.28671 0.655293 -1.10025
-1.33536 -0.182116 -1.61983
-0.679816 1.4029 -2.50953
-0.0678953 0.482 0.0413676
0.837486 -0.908467 -0.272
0.298343 0.532982 -0.708256
2.96995 -1.18753 1.18665
1.13416 0.303709 -1.06596
0.0575325 0.0279094 0.0497987
-0.158761 -0.126834 1.00615
-0.792414 -0.446833 0.170093
-0.155158 -0.454449 -0.28689
0.347814 -0.461862 -0.29108
-0.841195 1.82941 -0.169908
-0.297682 -0.888354 0.692484
1.87256 -0.578462 -0.19128
0.28874 -0.875791 -0.040274
1.46385 0.0141614 -1.87993
-0.800635 1.73991 -1.76257
0.524293 -1.17836 0.158346
-0.910735 0.855991 -1.61721
0.177143 -0.420584 -0.671105
1.57292 -1.0198 -1.5569
0.565048 0.49632 -0.585425
-1.57871 1.43048 -0.453471
-0.810409 -0.373077 0.245625
0.0273287 -1.98457 -0.123737
1.41762 0.562648 0.309322
0.652641 0.183022 -1.86956
-0.169621 -0.625523 2.39667
1.19652 -1.17679 -1.45857
1.89436 -1.04782 0.611388
0.300529 0.0302311 0.42231
-0.906509 0.498235 0.597245
-0.587536 0.619379 -0.401719
-0.73087 0.490015 -0.0726635
0.955737 -1.45397 -0.174208
0.000309352 -1.1143 -0.245203
0.188778 2.14956 -1.63713
-1.07861 -1.07149 -1.50941
0.746694 0.884812 -0.63341
-1.00184 0.100719 -0.974257
-0.933797 -0.275164 -0.674399
-1.43367 0.277582 0.299694
-0.572718 1.00023 0.804689
-0.160373 -0.548533 0.0869127
-0.603002 -1.88768 -1.02159
0.156404 -1.97084 0.956153
-0.870027 0.194596 0.163971
0.800617 0.613574 -0.990587
0.648805 1.14117 0.526107
0.363141 2.77805 0.187611
0.211265 0.353333 0.0761401
0.405877 1.07021 0.645616
1.01869 0.0788787 1.3069
0.801616 0.17371 0.889079
1.5421 -0.330997 -1.01539
0.725129 0.14858 -1.50892
-0.47668 2.58633 -0.0123519
0.414278 -0.349642 1.53938
-0.77686 0.663309 0.650387
0.207597 0.206271 0.0680325
-0.180338 -2.70331 -2.67239
0.865453 -1.90547 0.184656
-2.13374 -0.529908 -0.722103
-1.07238 -1.17282 -0.4952
0.454336 -0.875494 -1.2009
-0.591985 -0.0778838 -0.106739
-0.328204 0.814876 -0.0344942
0.914901 -0.166986 0.549469
-0.50671 -0.036364 0.534797
1.04056 -0.0250399 1.33364
1.55627 0.384153 -0.900846
0.533108 0.396154 -0.999668
-0.217143 -1.02179 0.925447
1.60265 -0.152514 -1.63306
-0.0662536 0.353951 -0.252208
0.144415 0.000531196 0.211693
-3.12204 1.56024 0.386869
-1.6941 0.308019 0.939613
-0.960677 -0.513809 -0.119539
-0.413459 -0.273682 -1.1027
0.119832 1.15205 1.33667
-1.10161 0.444624 -0.493968
-0.277208 0.200803 -0.317583
0.232196 -0.36615 0.0392296
1.60392 -0.51836 -0.094179
-0.0457369 -0.677525 -1.27843
0.634982 -0.0907627 0.775894
1.27475 0.45953 -0.0888034
0.81743 2.3073 -1.10895
-0.16465 -0.146796 1.25674
-0.00595921 -0.954963 -1.3474
-0.16678 1.47355 -1.14668
0.859812 -0.754298 -0.900351
1.64465 0.85558 -4.0029
-0.885889 0.337668 -0.505326
-0.458706 -0.554942 0.0410315
0.639256 -1.00776 1.37164
-0.601612 -0.904091 1.62084
-0.0493895 -0.138509 0.0405963
0.141219 -0.349134 0.338859
0.198981 0.275078 -0.351711
1.08048 1.32253 -0.495565
-0.570908 -0.353826 -0.318501
-0.290424 0.623036 -0.712054
0.343241 -0.373884 -1.59479
0.301979 0.174049 -0.566079
0.342133 0.65368 -0.200173
1.42311 -0.500114 -0.629757
0.601489 -2.28323 -0.858283
0.82712 -0.877154 -0.229307
-0.561472 0.257437 -2.79578
0.415179 1.30128 -0.890998
-0.0223148 -0.666044 -0.186249
1.34477 -1.51285 0.30969
0.849831 0.889699 0.0734532
0.0999126 -0.590867 1.28755
0.349196 1.44936 -1.35159
-0.535756 1.23809 -0.486288
0.287764 -0.363968 -0.810824
-0.794534 0.912726 0.713123
0.694401 2.15825 -0.230943
-0.0504496 0.103192 -0.336469
-0.237934 -1.05023 -2.33121
-0.214989 0.599415 0.179714
0.0698643 -0.171917 1.84276
-0.0256564 -0.774355 1.55266
0.0496319 0.546642 -0.541643
0.634297 0.0639051 1.10949
0.591809 -0.688069 -2.13058
-2.55948 -0.270041 -0.129358
-1.38198 0.00629166 0.720637
0.517478 0.302118 -1.14534
0.806536 -0.0293783 -0.0363142
-0.49343 -0.420259 -0.334686
-0.44811 -0.912665 -0.0739237
0.0274288 -1.60051 -0.156883
1.53076 -0.319309 -0.297051
-1.00548 -0.224555 -0.262437
0.0232024 0.295606 0.756883
0.0687783 -0.174148 0.160345
-0.396947 0.606696 -0.873759
1.12079 -2.22314 -1.30321
0.0664823 0.272508 0.0860438
1.86273 -0.190195 0.56128
-1.69488 -2.88847 -0.217268
-0.608454 -0.479736 1.7826
1.81835 0.8397 -0.26312
1.75315 0.660682 0.899602
0.022157 -0.573021 -0.815841
-0.357448 0.0557047 0.426084
-0.623652 0.0529454 1.78472
0.551031 -0.321167 0.60321
0.367567 -0.0658035 0.388818
1.95426 -0.0762766 -1.19423
-1.25982 0.322863 1.15335
1.84458 -0.0879864 0.498376
0.885867 0.0763279 0.407954
0.166752 0.665429 0.389068
-1.27041 0.776568 -0.755006
0.812388 -0.0713109 0.230511
-0.852706 -0.767911 0.51645
-0.435296 -0.106684 -0.346361
1.12202 -0.901515 0.184278
-1.37817 -1.20855 0.822354
0.767349 -0.595512 -0.611194
0.804422 1.59193 0.632821
0.397718 0.227199 -0.278202
0.175162 -1.23157 0.0420136
-1.10408 -0.0331947 -2.76972
0.966477 0.464695 -0.44475
-0.11346 -0.172686 0.482656
-1.51927 -0.0293798 1.66216
-0.725242 -0.0875997 -0.766741
2.0798 -0.733246 0.46341
1.0084 -0.660493 0.259539
-1.82264 0.739764 0.59065
-0.145426 0.825693 -0.72721
-0.457336 0.0149251 0.297275
0.192657 -0.628889 -0.620026
-0.538503 -0.734963 0.824288
1.24919 -0.211464 0.805665
0.150462 -0.534605 4.89475
-2.50806 -0.162838 -0.428904
0.252348 0.603564 -0.339395
0.855853 1.36246 -0.836477
0.590507 -0.350596 0.058644
-0.667587 0.443254 0.391141
-0.0457133 -0.119969 0.395966
0.332936 0.186325 -0.922734
1.21696 -1.50434 -0.204349
1.07625 -0.448892 1.05756
1.07076 -1.98702 3.04906
0.615419 0.967973 -0.338088
0.134797 0.0935941 0.280463
0.634037 -0.608268 -0.313321
1.05867 0.710402 0.555709
-0.155671 -0.0232984 -0.620186
1.16878 0.835652 -1.12461
-0.655888 0.652462 0.762387
-0.330828 -0.368563 1.46251
-0.513117 -0.230426 -2.62122
-1.4948 -0.343803 0.0192778
0.71574 -0.576668 0.268665
-1.03912 1.21392 0.515756
-1.08751 -0.102523 0.305137
1.56798 -0.224922 0.251974
-0.231612 -1.02948 -0.323258
0.670302 -0.51301 -0.0138778
0.348961 0.0357178 0.653565
0.0612635 -1.26901 0.49994
-0.530793 -0.739622 -0.30338
-0.384445 -1.01698 -0.574102
-0.653262 1.70262 -0.81535
-0.35943 -0.00200177 -0.960907
0.342209 0.113851 0.476082
0.389797 -0.444688 -1.85028
0.749874 0.19011 -1.08761
0.184049 1.40301 -0.447031
-0.302969 -0.262325 0.712374
-0.360824 -0.485444 0.549098
0.19108 -0.251971 0.238978
-0.316163 -0.863478 0.787173
0.0984968 -0.980104 -0.715245
2.59353 0.307373 1.42082
-0.443336 -0.243606 0.655169
1.30035 -0.160213 -0.202588
-0.875645 -0.301432 1.30701
-0.041798 0.246237 1.86782
-0.515459 0.375387 -1.41245
-0.355115 1.1039 -0.863197
0.800173 0.847505 1.57157
-0.511559 -0.0837588 1.10958
-1.50962 -0.124616 1.57869
0.391106 -1.2183 0.507624
-0.255241 -1.08825 2.23929
-0.126666 -0.0482489 -0.995417
-0.57077 0.33698 -0.913263
-0.63731 1.08738 -0.121445
1.43492 0.674868 -0.519793
0.416381 -1.10039 -1.09052
-0.240721 0.120522 -0.00449649
-0.104579 0.344907 -0.196944
-0.979333 -0.346147 0.0297742
-0.533536 0.0565193 0.441532
0.802592 -0.23985 0.330207
0.496042 0.215387 0.186434
0.0266283 -0.521151 -0.0939914
-0.464961 1.7095 0.743653
1.55424 -0.116427 -0.357451
-2.10551 -0.499647 1.16339
-2.04427 0.945361 1.90471
-0.0227739 1.67405 1.41334
0.0722213 0.287522 -0.0661185
-0.324277 0.36726 0.432437
-2.3249 -1.42341 0.524881
1.49733 1.52722 2.6268
0.53547 1.10049 1.13993
1.90628 1.19359 0.0551159
1.16648 0.513015 -1.71934
-0.604253 -0.620968 -0.88462
0.22081 -0.0711041 0.301042
-0.627571 -1.37153 -1.84359
0.437544 -1.28363 0.834567
1.16148 -0.0304663 0.330925
-0.985036 -0.7043 -0.36044
-0.280328 -1.33698 -0.267447
-0.614522 -0.0533059 0.948222
-0.812446 -0.915522 0.223136
1.31559 0.0182241 -0.912678
-0.62919 -0.748672 1.34762
-0.557783 0.458508 -0.471013
0.377468 -0.610688 1.43378
-1.05865 0.161391 -1.17312
0.661936 -0.558368 0.718365
-0.780517 1.14229 1.49662
0.0761902 -0.441871 0.209608
0.751026 0.453694 0.247232
-1.18621 -0.0756164 0.844766
-0.0652549 -0.207881 -1.30968
0.219992 -0.983628 -0.6692
0.10814 -1.50806 0.50573
0.270091 0.692829 -0.552549
-0.562205 0.389292 -1.70273
-0.987747 -0.234313 -3.1263
1.1972 -0.581094 -1.96764
-1.0384 -0.584392 0.738749
-0.619354 0.360267 0.635255
1.10089 -0.17205 -0.70176
0.790181 0.507703 0.511763
-0.136789 0.829597 -0.415717
-0.0702758 -0.395777 -1.69491
3.03726 -1.21534 -1.11908
3.25192 -2.53466 1.06524
0.442516 -0.631465 0.448365
-1.06154 -0.747081 -1.11115
-0.742366 0.136528 -0.0701183
-0.070071 0.45741 -0.104872
0.898396 0.707871 0.0713043
0.947867 1.11522 -0.462393
-0.235082 -1.24164 0.0319342
1.24455 -0.938256 0.578402
0.91964 0.13931 0.120866
-0.816736 -1.79447 0.876461
-1.91187 2.42219 0.949866
-1.12947 0.109284 0.48282
-1.53743 -0.196886 0.866608
-0.887094 0.288812 0.431977
-1.27413 -1.6228 0.771718
-1.11667 -0.733994 -0.693262
0.482431 0.556692 0.283808
0.317883 -0.536944 -0.569437
1.75556 -1.21244 -0.195768
-0.730529 1.04118 -1.79915
-0.573622 -0.284372 0.435905
-0.426963 -0.147721 0.0450178
0.00677738 -0.912274 -0.899
-1.91822 1.95639 0.983371
0.333161 -0.402834 1.57365
-0.239438 1.0465 -0.519506
-0.23783 0.144498 -0.258273
-0.45526 -0.878697 -0.124717
0.805993 0.0050636 -0.699834
2.0357 0.287624 0.454668
-0.778398 -0.338201 0.717442
1.73331 -2.16888 1.54111
-0.201868 -0.383492 0.0426549
-0.138049 0.705402 0.422038
-0.248926 -0.0494495 0.322881
-0.52872 0.166249 0.147058
-0.761872 -0.628354 -0.680969
0.46935 1.02077 0.215228
-0.346382 -0.15038 -0.000812126
-2.24367 1.21948 0.77142
0.19256 0.638306 0.291722
-0.678149 -0.353243 -0.972081
-0.11249 0.389797 -0.25549
0.88215 1.44294 0.629706
0.868966 0.118799 -0.451885
-0.553637 0.137003 0.174385
0.40415 0.024374 -0.730959
-0.606346 -0.33011 -1.22309
0.450262 -0.486371 -0.579737
-2.36542 -1.33713 -1.18779
-2.05683 -2.35652 -0.633493
-2.47027 -2.29389 -1.25368
-1.3527 0.0422472 -1.02555
0.00961655 -0.394778 -0.338492
-0.158999 0.0842085 -0.112683
-0.182054 -1.94044 -0.428777
-0.157617 -0.568357 -1.78542
-0.571657 -0.332658 -0.568921
0.438416 0.90486 -0.657187
-0.139398 0.964821 0.16399
0.300107 0.520309 -0.643146
1.72665 -0.36969 -1.20183
1.90423 -0.421927 -0.23643
-0.212261 0.487731 -1.36693
-2.10088 -1.2995 0.456943
-0.836987 0.185071 0.858888
0.63419 0.486944 0.124078
0.438175 0.162086 -0.703369
-0.588368 -0.272849 -0.582365
-0.760838 -1.70433 -1.08965
0.261581 -0.554583 -1.82961
0.224254 0.749309 -0.472016
-1.64856 -1.6893 -0.659693
-0.816522 1.1028 -0.379064
-0.986591 0.202845 -0.178274
1.18113 0.313817 0.411925
0.170496 -0.383875 0.478111
-0.0461948 -0.00519992 0.201022
-1.24926 -1.57777 -0.494849
0.328536 0.634588 -1.19581
1.31797 -1.07103 -0.387537
1.95168 0.172679 0.91754
0.271044 -0.198798 0.0685545
0.194067 1.75525 -0.0157248
-0.0303286 -1.60839 -0.27498
1.21052 -2.29021 -1.18011
0.764418 0.355843 0.106741
-0.291565 -0.868746 0.382008
0.412576 1.04717 1.06749
-0.0160549 0.125644 1.19172
0.690241 -0.334329 -1.13553
-1.3948 -0.280835 0.115846
-1.77648 0.957936 -0.726925
0.314458 0.135869 -0.884436
0.862607 1.07084 0.566065
0.0250478 -0.520891 -0.451348
0.0269504 -0.0102053 0.185233
1.31589 0.928209 -0.208841
0.652691 -2.17583 2.15126
2.2961 0.37109 -0.719468
-3.06816 0.465106 1.1571
-0.810037 1.75069 0.120068
0.393637 -1.1896 -1.39197
-0.856638 1.16735 1.10155
0.81372 -0.182831 -1.22859
0.722319 1.02927 -1.15674
1.50868 1.75076 0.901797
-0.364892 -0.223209 -0.644628
0.654286 -0.506887 -0.304512
0.0544058 -1.63777 -0.545537
1.54223 -0.0791924 -0.256601
0.228679 -0.530264 0.659956
0.518869 0.120539 -0.371966
-1.51048 0.27765 0.0427768
1.41354 2.29582 -0.468352
-0.594117 1.69407 -0.558203
-0.212176 -0.538782 -0.0152335
0.689103 0.464116 -0.190668
-0.96075 -0.865514 -2.61965
-0.116473 -0.547939 0.0315887
1.41878 0.43084 -1.08188
-0.828758 -1.05379 -0.56167
-0.190189 -0.871048 -1.88014
-0.784772 -3.22508 -3.28696
-0.534325 0.00330477 -2.36488
-1.48618 1.09391 -1.67243
-0.217786 -0.737012 0.60947
-0.307161 0.367421 1.22513
-0.742775 -1.51979 0.0617173
-0.516668 -2.28002 0.415714
-3.3893 0.11791 0.15686
1.48108 0.821528 0.73665
-0.339866 -0.396116 0.352826
0.788333 0.773366 -0.757883
-0.958449 0.872654 0.126146
-2.34974 -1.58119 -1.7404
-4.57473 0.927408 -0.876861
0.0904628 0.640167 -0.152833
-0.0919822 0.31836 1.61699
-0.0797536 0.0799782 0.8772
-1.12671 -1.25397 -0.916086
-0.253533 -0.450167 0.120725
0.416943 -0.0268464 -0.11641
-0.246678 1.05935 0.0320492
-1.21553 -1.64524 1.57982
2.32862 -0.233756 -0.2519
1.59021 -0.209038 -1.49206
-0.725714 -1.3041 0.6236
0.529832 0.534416 0.646473
1.57571 -1.03496 -0.0983873
-0.0728381 0.0310373 0.509642
2.30061 -1.04589 0.159895
1.74068 -0.587243 -0.226071
-0.825762 0.446007 -0.445933
0.746205 0.351017 -0.768959
2.03641 0.970057 0.752791
0.539132 -1.64434 2.79048
-0.728676 -1.12937 1.27117
0.218729 0.654857 -0.0838818
-1.7113 3.60343 1.60239
-1.33183 0.854441 2.11518
0.836421 -1.24485 -0.399411
0.183004 -0.727654 -1.27112
0.268012 0.311558 -1.4054
-0.548535 0.907815 0.491743
-1.22918 1.07629 -2.35955
-0.0614094 -0.399597 -0.540929
-0.130264 0.210231 -0.144516
-0.23722 -0.347906 0.689037
1.11221 -0.610425 1.28267
-0.0272364 -1.74918 1.8527
0.178767 2.10813 -0.721291
-0.676887 0.370141 -0.305
-0.30166 0.502103 -1.30208
-0.803836 2.43261 -0.154222
-0.535825 -0.580147 1.31447
0.899776 -0.714398 0.57362
-0.398003 -0.000701428 -0.898705
-2.20159 -0.645689 2.04414
0.418124 0.716024 -0.102093
0.937837 0.202615 0.092829
-0.057891 -0.867977 0.375155
0.537384 0.789853 -0.142597
0.0601759 0.392043 0.291797
0.645391 -0.519023 2.70867
0.648959 -0.878811 -0.198049
0.142684 0.76994 -1.12819
0.36822 0.783899 0.695844
0.744614 -1.49818 -0.526632
0.155488 -0.0966495 0.592968
0.239509 0.350425 0.393531
0.524794 0.508247 -0.729426
0.267787 -1.76711 1.04024
-0.0821533 -0.1636 1.63687
-0.128071 -0.281312 0.193124
1.28263 0.404065 1.24495
0.203746 -0.193225 -0.566735
-0.55738 -1.86319 -0.313085
0.425168 -0.226327 0.673233
0.309215 -0.0979326 0.00354996
0.0660185 -2.22583 0.559638
-0.57066 0.284575 1.20394
1.21407 0.756301 0.369405
-1.09793 -0.661835 0.468021
-0.982434 0.868898 0.126484
-0.15527 1.02721 -0.192904
0.242963 1.07681 -0.0591615
0.169531 0.675401 -1.32958
0.304149 0.0751656 0.450315
-0.141377 0.230407 -0.358943
1.03234 0.0370521 0.159905
0.0220174 1.12507 -0.360214
0.0359599 -0.0992769 0.443966
-0.101995 -0.237669 -0.26384
-0.0215029 0.148613 -0.0361232
-0.336049 -0.814461 0.22726
-0.251678 -1.06233 -0.066041
1.848 0.172249 -1.33491
-0.354765 -2.10322 -0.343161
-0.177783 0.218681 -0.217396
0.602848 0.673443 -0.445374
0.282021 -0.076595 0.334476
1.08028 0.569048 -0.0348448
2.79044 -0.480825 1.25003
0.324867 -0.859853 -0.205655
1.33882 -0.863939 -1.09795
-0.670921 -0.750111 0.693668
-0.179775 0.540137 0.210329
0.817843 -0.0540046 0.436788
-2.27244 0.884534 0.0961813
0.102351 0.660049 -0.110477
-0.00466061 0.496882 -0.00816332
0.701271 0.664267 0.30335
-0.410922 0.47281 -0.565849
0.272452 -0.555738 -0.0398594
0.0809793 -2.369 -2.0996
0.738327 -0.824922 -0.552683
-0.0939747 -0.92235 0.472193
0.151939 -4.02227 1.04728
1.29886 -3.06057 1.53587
0.371328 0.0418407 -0.103938
0.863199 0.281587 -0.486664
-0.0815688 -1.12317 1.79108
0.72117 -1.25876 0.150287
0.222078 -0.180147 0.132976
-0.979139 -0.758634 -0.43201
0.170433 -0.224132 0.684265
-0.561069 -0.825722 0.230586
0.191553 -0.634826 -0.835734
-1.33537 -0.669511 1.00016
0.155262 0.485752 -1.28054
1.82701 0.750036 1.00624
0.732597 -0.560819 0.225784
-0.620904 0.160301 -0.58469
-0.164414 0.0211221 -1.37884
-0.858631 -0.121242 0.160382
0.655158 -0.863523 1.67383
-0.102607 0.563776 -0.488311
0.618302 0.724993 -0.300623
-0.488792 0.256455 0.536191
-0.454405 -0.677116 1.31992
0.198806 0.221534 0.778898
0.162906 -0.0114089 0.313998
-1.42824 1.36318 0.226501
-0.308956 0.207605 -0.27536
-0.0720468 -2.17242 1.16557
-0.350096 0.167571 0.16835
-0.0477563 -0.472256 -0.336601
2.08023 1.77488 -1.86034
0.293078 -0.309642 0.947657
-0.788381 1.4654 -0.234836
0.745583 0.806768 0.817649
0.509924 0.59544 -1.2488
0.0304431 -0.120875 1.19168
-0.145639 0.979223 0.17496
2.77175 0.513691 -1.04679
-0.920753 -0.319097 0.66023
0.274269 -1.13644 2.16738
0.352196 -0.307602 0.222387
0.255099 0.375609 -0.559234
-0.373795 -0.0735155 -0.739631
-0.382558 -0.442239 -1.69462
0.335465 -0.335316 0.310038
0.546282 0.344916 0.636122
-0.665375 -0.782835 2.66385
0.0597001 -0.755156 -0.114293
0.476141 -0.178956 -0.00321704
0.862366 0.454021 -1.36413
-0.00619418 0.915626 0.212959
-0.132478 0.020279 -0.193967
-0.668889 0.594215 0.501236
-2.47621 -1.45875 0.882524
-2.21129 0.386038 0.981848
-2.2528 0.317464 -0.629879
-0.707196 -1.06578 2.95209
-1.81359 -0.971525 0.410769
-0.943265 -0.190674 2.32889
-0.797704 -1.5657 0.624268
-0.827064 -1.37164 -0.857907
-0.277705 0.665756 -0.216048
-0.286904 -0.504231 -0.0726239
-0.132504 0.955818 -0.750171
0.0190065 0.27439 0.638558
0.182122 0.00684896 -0.534579
-0.0850593 -0.949118 -0.00758177
-0.598218 0.309457 -0.164283
-0.737296 0.42072 -0.243103
-0.0676254 -1.03723 -1.4188
-0.334687 0.635121 -0.669059
0.681732 0.456338 -0.935174
-0.446702 -0.0776214 0.157554
0.163158 -0.531138 -0.103986
-0.947598 -0.246574 -0.348679
-0.504094 -1.3816 0.0873912
-0.179906 -1.28417 0.387503
0.445085 -1.76302 0.41028
-0.755595 0.117978 -0.0941172
1.38661 -1.05526 1.01797
1.18911 0.518084 -0.924274
0.328655 -0.336107 -0.0671022
-0.000121912 0.239728 0.405563
1.09088 0.833563 1.04133
0.00635096 0.717271 1.18302
0.876328 -0.0532716 -0.709671
-0.81051 -0.120647 1.70112
-0.477543 0.663626 -0.2365
1.10988 -0.136254 -0.47649
0.988157 0.286507 -2.2307
0.589509 2.01596 2.20235
-0.307395 -0.333888 0.716358
-1.0696 0.23764 1.30933
-1.15227 0.0899147 1.2952
-0.981481 0.435594 1.37137
0.0908615 -0.67069 0.368262
-0.544586 -0.0721844 -0.284132
-0.40168 -2.3065 -0.303969
-2.423 0.469424 -0.0729222
-1.67871 -1.42958 -1.5926
0.496974 1.00461 -1.0344
-0.468861 -0.746261 -0.0782353
-0.393337 -0.0546127 -1.3991
-1.60944 1.33814 0.287016
0.461347 1.65276 -0.976113
1.89714 2.9102 1.73645
2.06484 0.75141 1.26216
-0.28012 -0.833528 -2.02846
-0.300449 -0.452873 0.709314
-0.0575756 -0.159835 -0.19414
0.881928 -0.56352 0.455706
-0.195798 -0.857646 0.693956
-0.789011 -0.709767 -0.478943
-0.106749 0.0921064 -0.827235
0.102535 1.51521 1.01748
-0.011199 0.21285 -1.49186
1.49622 -0.446908 -0.815844
0.0976445 0.231852 1.12169
-0.689599 -1.47922 -0.612883
-1.04933 -0.600956 -0.669152
0.3696 0.355659 -1.34666
-0.580388 0.738698 -0.320194
-1.67815 0.476638 -0.252323
1.24881 1.41816 -0.187194
-0.150775 0.329285 1.91249
-0.443814 0.505877 -0.953276
-0.086373 0.398184 -0.281741
-1.23107 0.447887 0.626484
0.350774 0.0284983 1.16771
0.578921 1.3665 -1.03457
-1.25153 -0.250303 0.541599
-1.31645 0.755461 -0.52092
-1.16213 -0.342203 1.71072
0.628387 0.96079 -0.515521
0.672072 -0.611741 0.0707764
-1.16009 -0.744939 -0.222941
0.423604 0.48701 -0.720325
-1.31595 1.75826 -0.5099
0.477318 0.661581 -0.292574
-0.00463746 0.657011 -0.655258
0.51135 0.266333 0.381916
-1.82907 -2.04427 -1.43131
-3.57691 -1.5445 -0.990432
0.0806167 1.21312 -1.11076
-0.752469 1.08923 0.138069
-1.38113 -0.40829 -0.676964
-1.23551 -2.05867 2.91309
1.04177 0.424823 2.96572
-0.0563195 0.174313 0.575861
-0.0853922 0.0137905 -0.663225
-0.219751 0.0200298 0.446893
-0.01999 0.883426 1.58093
0.275177 -0.305693 -0.0830709
-0.923212 -0.976867 -0.383664
-0.0850397 -0.954557 -0.33086
-0.332056 0.0991959 -0.0381363
-2.35936 -2.2374 0.177466
-1.0714 0.136268 0.465937
-1.55344 -0.0452586 0.351982
-1.47422 0.201419 -0.706501
-0.499971 -0.0388233 0.652117
0.32959 -0.601701 0.71611
-0.0486154 -0.58401 -0.73994
-2.92497 1.55373 -0.134479
-0.837035 1.3737 0.870849
-1.38105 -1.47119 -0.43286
-1.24911 -1.46202 1.00872
-0.0901786 0.72899 -0.0890947
-0.241337 -0.204532 0.744792
-0.253738 -0.172564 0.689766
-0.109881 -0.586879 0.710334
-0.677668 -0.23192 -0.527416
-0.551658 0.108165 -0.220251
0.553319 0.349366 0.615947
0.622952 -0.297042 0.958321
-0.402124 -1.90246 0.00116957
1.12803 1.73485 -0.0998335
-0.403315 1.25951 -0.869988
0.484004 0.838831 -0.237777
-0.386255 0.770637 0.409358
0.886597 -2.4748 -0.553887
0.236201 -1.39507 0.531326
-1.07517 -0.252307 0.0561948
0.236216 -0.244762 -0.63353
1.02678 -0.00510764 0.299148
-0.557864 -0.089286 0.278419
0.073672 0.150596 0.453304
-0.139177 1.08358 -1.8976
-1.54335 -1.99167 0.47187
0.984405 0.603094 0.756576
0.165629 -0.558508 0.210129
