-4.77188 2.70231 4.78836
-0.151181 -0.0596544 2.8818
3.72553 -0.034102 -0.541785
-1.40799 1.43819 -4.26458
-0.0502542 -0.80327 -5.81376
1.55591 -2.51167 3.17508
-1.17361 -1.59239 3.04537
4.32516 0.401459 -11.0299
-0.733988 0.987734 -3.52635
-0.36995 1.11971 -2.94532
1.23755 -0.687664 1.915
1.27874 -1.37642 4.6816
1.00107 -6.70218 3.44135
1.94602 -5.79012 5.61525
1.4851 0.347282 3.0471
0.797233 -2.15937 1.83131
1.64126 0.212399 3.14947
3.98013 1.05617 3.31789
0.810473 -0.993075 3.52021
0.819293 -1.16437 2.80863
2.15589 -3.24114 -1.15148
0.0747092 0.751381 3.42141
5.22759 -4.22616 2.4688
6.54005 -1.70099 4.12594
2.03673 -1.16643 1.92675
-1.15929 -0.166334 -5.29285
-1.20811 -4.79612 -8.6137
-1.70962 1.67365 -4.7832
2.59924 2.28112 -6.0626
-1.86593 2.66808 -2.25092
-5.15891 1.63563 -2.22743
0.123141 -0.267088 -2.09587
-1.6442 -1.47898 -1.46394
1.4496 0.695826 1.45901
-3.00239 -1.32634 1.2383
-1.87157 -6.39547 1.46348
-3.79419 -4.21656 2.16201
1.44221 -2.92353 2.22258
0.436636 -1.29148 -4.39952
-3.20903 0.0943042 -3.22536
-0.074889 -0.160119 -1.85307
-0.292535 4.73013 -1.24364
-2.1126 2.23921 -1.60517
4.15489 0.881251 -2.03126
0.493745 2.42431 -4.13541
-6.61482 -0.884727 -3.72476
-4.75013 -3.37386 -3.22863
-1.01751 0.460865 -3.56222
4.16639 1.13572 -3.90889
-3.17831 1.49122 -4.81904
-3.5337 1.84788 -1.21517
2.35843 -1.24123 -4.62913
0.94914 -4.1878 -2.37665
4.48947 -0.507937 -2.4999
-2.79825 0.673253 -5.98678
-2.54014 0.6457 -4.15393
-1.7042 -0.601685 -2.29693
-0.294261 -1.51324 -2.01052
-0.836261 -3.20263 -2.53708
2.9227 0.471641 -4.56861
3.61838 -1.25105 -1.08102
1.55827 -0.797437 -5.868
3.98144 -0.0841909 1.44633
1.27687 0.264605 -2.1996
1.03827 2.61963 -6.12349
2.14907 2.30213 -2.11157
-1.81601 0.646684 -2.96927
0.424192 1.66697 -1.24706
1.21805 2.22774 -2.92359
1.3812 -3.06631 -6.41861
-2.00368 0.779542 -2.56805
3.38746 -0.289269 -3.20315
2.65228 1.58481 -3.28454
5.64174 -1.37278 -4.38297
1.74568 -2.18896 -6.68372
-1.51779 0.784154 -5.76232
-2.15034 -4.40315 -4.47211
0.499738 -0.49235 -3.44865
4.85205 -6.60088 -6.76367
-0.133581 -2.29533 3.6516
-3.66005 -0.749522 3.88876
-0.0859041 0.513834 3.87789
-1.12746 0.413376 1.67047
-3.53262 4.19131 4.09267
-0.873446 -0.247354 1.78569
0.295437 0.753296 4.97346
-0.757614 0.248878 7.36101
-1.4169 2.0113 5.82544
-0.594351 0.805787 1.20265
-1.52127 -4.27145 7.63158
-0.500744 -3.26412 7.74515
-0.455623 -0.601555 3.55898
-1.57592 -1.77341 3.38079
1.49681 0.923247 3.5209
0.516764 0.426974 -1.70916
1.52546 -0.557581 -3.46024
-0.752605 0.0341068 -1.70968
-0.924358 -2.37166 -2.898
3.20083 -0.397059 -3.73914
1.19621 -3.84323 3.28119
-0.267641 4.91752 5.32976
-3.22597 3.1989 5.29424
1.89594 4.27549 2.2813
-1.56049 -1.12493 2.78141
-0.216526 1.60016 -1.25935
1.762 -0.267991 -3.53649
1.74273 5.68638 -1.73553
-0.512332 2.31424 6.56542
-1.8021 3.27477 4.21515
-0.588383 -0.89641 2.09486
-1.02158 1.34049 2.62321
-3.78963 -3.26917 7.41199
-1.07601 3.5217 2.2353
1.70066 6.14828 -4.15866
0.718582 -0.793222 2.88552
-0.0260864 -0.554893 2.58749
-3.24666 2.15176 4.23177
1.02936 -1.5815 3.40924
0.261185 -5.16419 -2.24518
-1.04579 -1.20494 4.84902
4.0924 -0.436525 6.27976
0.967245 -0.987032 5.44991
-3.34673 -0.97267 2.18677
2.1928 -1.07621 3.77961
2.7021 1.55564 6.60252
-4.12468 0.967398 4.77199
4.32498 -0.363711 4.94793
1.26854 -1.04843 -4.32043
0.319163 -1.44629 1.97002
1.2069 -0.557663 3.36231
1.63188 -0.235181 4.10915
2.21235 3.71415 5.19256
-0.0773852 -2.46978 1.85688
5.54805 -0.0164267 6.53008
-3.15671 3.14731 -0.969866
2.73831 1.34602 -2.77363
-0.53671 -0.400864 -2.51778
3.31586 0.349025 -2.48905
2.76884 1.27781 2.09422
-1.04378 -2.9337 -2.47995
-0.376447 -0.365041 -4.10197
-0.749036 1.76698 -3.88271
-3.12618 -1.46107 -2.06751
1.48636 -0.835438 -5.22983
-3.26727 3.03671 -1.48164
-2.09721 -3.98569 -3.80975
0.624003 -0.588467 5.57319
-1.88901 -1.06098 4.73638
0.741138 -3.36933 2.23263
0.892529 -1.57475 1.60756
-2.66755 0.102734 1.2159
0.556479 -0.567882 1.51286
-3.03321 3.03893 2.89766
-1.79068 -5.38455 2.33511
-0.471924 1.39056 1.30806
3.92502 -3.37197 6.28937
2.82467 -1.177 3.49811
-1.33001 0.784066 8.06648
3.47115 -2.40399 5.06729
-2.04596 -0.416164 7.45018
4.99715 -0.315477 5.77725
-3.40603 0.881265 3.62625
-1.48982 -0.596057 -6.38821
0.135928 4.16142 -4.06954
1.56142 -2.44747 -3.29199
-3.58706 4.28913 5.64511
0.448923 -1.18371 -0.783186
-0.613636 -3.16214 -2.86295
1.95074 -1.46005 1.63462
0.951355 0.6698 -5.50242
2.71027 -2.05106 -7.80338
0.902909 -1.47499 -4.31376
-0.514943 -0.327174 -2.85725
1.90106 3.71794 -1.76436
1.18292 0.325998 -0.826869
-0.0596147 -1.99607 2.23663
2.63202 -1.84371 2.21299
-1.50089 -0.161897 1.01069
-2.80394 0.422647 -3.61249
1.3142 -1.05711 1.53297
-2.12533 -1.50233 3.7196
2.00992 1.45912 3.51788
3.29647 -0.0908997 1.29911
1.31079 -0.729497 4.97711
0.994581 -4.85008 0.524887
4.34372 1.48674 6.66212
-4.01312 0.0577481 2.94422
-1.19743 -1.57625 6.27601
-0.399756 -1.97817 1.40113
-1.48967 8.86973 -5.20982
4.01064 -1.83017 -7.57104
-1.1572 -5.40181 -4.78186
-1.30337 0.581051 -2.19148
0.426435 -0.520949 0.971858
0.692979 -0.465972 -3.67454
0.282321 -1.52931 6.21195
-1.91479 -2.45909 4.48312
-1.82241 -3.30704 4.69541
-1.03215 -1.34699 0.727294
1.0298 -0.349174 -2.92133
2.10754 2.98775 -8.85464
0.282322 0.665087 -3.71649
-0.266732 -2.58265 -5.23091
-1.06656 -0.139703 -1.58206
4.56516 -3.76687 -4.8711
0.132942 1.84974 -5.15224
2.58826 1.50626 -6.94272
1.5251 0.157927 -1.87926
6.15687 2.50485 -2.13401
1.95418 -2.77868 -4.15801
-1.60836 -1.1224 -2.77566
0.0326565 1.70937 -3.5924
-1.33689 0.638758 -2.26163
2.76352 -2.51712 -3.42036
1.69494 2.46158 -4.34139
-2.14097 5.92651 -2.88083
-4.02373 -1.20422 -1.32077
1.83807 0.239254 -2.61457
-1.06812 -0.0114868 -2.98464
-0.541337 0.162574 -1.60207
3.38201 -1.76581 -3.37777
0.243652 -3.46961 -2.07916
-0.423599 0.225982 2.1965
-2.44581 0.0386706 -3.55919
0.723377 -3.11584 -2.76267
0.151665 -0.390552 -1.29804
0.131481 -3.984 -4.15828
-1.2546 -1.41601 2.28317
-2.01035 2.15207 -5.0276
0.918197 -0.0361397 -2.94843
1.14956 -3.11286 -1.66634
2.09568 6.24982 3.27721
1.14792 1.50294 1.24592
-2.84451 3.79586 3.66355
-2.87751 2.11916 2.24167
-2.68981 -0.629166 3.53648
0.235312 -2.61741 2.97324
1.07954 2.09934 -1.27304
-2.07906 1.92057 -2.6568
-3.57058 -0.0110867 -4.31472
1.2997 0.34878 4.84538
-1.79107 -0.135725 1.80348
-1.25416 -0.863729 -4.01995
-1.17157 0.189888 -3.48348
-1.97005 0.290627 -1.55918
3.68746 -1.20423 -2.16855
5.99414 -1.98176 -7.89931
-1.03498 0.524597 -2.2201
-2.46746 -4.3937 -5.51175
-2.30918 -0.628029 -4.37259
-2.05256 1.4543 -2.16595
-1.09631 0.765432 2.53526
1.18567 -0.432931 2.3878
0.569091 0.578454 0.675278
-1.87804 2.01182 2.23245
-3.89739 -0.381921 -3.55568
-0.402076 -0.155977 -3.48816
-0.802867 -0.133022 -1.48816
1.86244 -0.185277 -5.20936
-3.8913 0.871973 -2.25065
1.09765 0.609155 -3.25353
-0.44324 0.312456 -2.57947
0.58243 -3.86002 -4.91069
0.777502 1.66903 -2.36492
-2.24068 -1.34702 -0.883614
1.69048 -1.69616 3.0557
-0.506692 -1.85339 1.44274
-4.31968 -2.15654 -3.1739
-4.4734 -0.356046 -6.24109
-1.68421 -5.44641 -2.08129
-2.70083 -1.67471 -6.72493
0.831208 -1.07698 -4.08681
0.632409 3.56035 -2.47964
-0.483258 0.695552 -3.65037
-0.70188 1.50145 -1.21468
2.13281 -2.40035 4.34247
1.74745 -4.12254 2.40274
-1.52204 -1.28978 1.39896
-0.917114 2.54347 3.52273
1.43328 0.568467 3.8099
5.87701 -1.69229 7.8908
0.0479655 2.18534 -3.64679
-3.16973 4.3018 -3.78877
0.673235 -2.52754 -2.85496
-3.21305 -1.48334 -4.94765
-1.08767 -0.47038 -1.43028
3.80463 -2.35776 -3.67073
2.21681 -1.90999 -4.95492
-0.811111 -0.0608146 1.42624
-1.4675 -3.28039 6.57684
3.99875 -1.65733 7.6818
-0.804743 -4.61813 5.06157
2.19529 -3.2678 2.80879
-1.42442 1.1165 4.37118
-3.28772 0.885964 3.70498
2.38824 2.61332 -4.48022
-1.66532 2.03414 3.28704
3.94367 -4.12599 3.31958
2.73269 0.42981 4.94564
4.21462 3.12318 4.85222
1.0759 2.30453 2.21833
1.42618 2.38868 1.6442
2.02522 8.57364 -7.34324
12.3703 3.36219 -6.29519
4.30687 0.24358 -2.63961
0.591711 -0.583706 2.33325
-1.36498 -1.45985 -2.70496
-0.636651 5.73652 -4.53884
-1.92771 0.124598 -8.84788
-6.96277 1.95203 -3.38043
-1.58646 -0.466039 -7.49341
2.29592 0.348668 -1.68087
1.24695 -0.278643 6.43873
-2.13469 1.88137 0.963805
-1.57941 -3.13549 5.74706
-2.45995 -0.739001 6.88955
-1.13414 -0.884888 3.72801
0.433351 3.26471 3.26516
-0.741647 -0.387243 3.15374
-1.88273 -0.792327 4.87793
-0.0393416 -0.00614236 5.75446
0.753153 3.30924 3.17591
-4.19097 -0.524293 -7.75168
-1.62247 2.38647 -7.95044
1.24301 0.802058 -3.20083
2.65134 2.35608 -3.64646
-0.683798 -3.59409 -3.15985
-3.35481 3.10297 -4.09775
-0.882532 3.22363 -5.09246
2.5142 -0.834907 -2.14595
2.03256 4.27286 -5.50425
0.0357762 -4.47743 -2.02215
1.69389 -5.40418 -7.53117
-0.495595 -1.2426 -7.1874
-1.8945 0.405894 -1.76346
-1.94703 -1.28726 -1.71239
0.422373 -0.10343 -2.1534
1.74216 0.486233 -3.5855
-4.64121 2.22737 -4.50454
1.78389 -1.63982 -2.72394
1.14569 0.973786 -2.73134
-2.65468 0.363425 -4.97565
-0.356054 -0.589681 -2.45918
-0.263246 -3.40565 -1.79143
-1.47477 -0.289101 -3.44921
-0.47978 2.4243 -2.61192
0.405983 0.616307 -3.22271
-0.420277 -2.82156 -4.35759
1.01612 4.35542 -4.23435
-2.44238 -2.25865 -6.60547
5.37189 -0.0300389 -3.49149
-0.641698 0.443777 3.16475
0.706905 -2.58964 -0.826697
0.380035 -2.59498 -4.07629
-2.63524 2.65436 -3.52248
-4.73662 1.55286 -4.54687
-1.73331 0.330989 -2.70776
-1.04075 -0.948394 -3.84898
-2.7985 -1.79635 -3.25016
0.709923 -0.415704 -2.55287
1.99693 -0.292983 -4.75304
0.165243 3.20039 -2.56731
-1.19711 0.418297 -3.39304
3.72854 0.904309 -2.51781
1.97352 -1.09805 -2.11027
0.377222 0.877845 3.25231
4.7762 2.44008 3.02296
1.48645 1.00168 -1.10828
3.63153 -2.41154 1.56758
-2.03697 -4.67767 2.09076
-1.61586 2.32262 3.013
-0.0447746 -0.706458 7.83709
-2.6652 -5.92553 7.61716
-6.43152 -1.09989 6.04599
-3.11182 -1.79626 6.84071
1.76871 -1.82836 2.10191
0.164025 0.54142 5.06631
-0.404884 1.37335 6.65412
1.11143 3.3811 5.8176
2.45986 -1.24981 2.42163
4.86849 1.18011 -5.20413
-0.221157 -0.169879 -2.60178
-1.32799 -1.24144 -2.83983
2.02905 1.19733 -5.71744
0.0985574 0.00222453 -2.72179
4.81904 -5.34828 -4.30789
-1.10152 1.65148 -3.89175
3.75673 0.59567 -2.05093
-0.136469 2.89252 -1.78673
1.48189 1.07848 -2.71866
-0.762312 -0.329852 -3.96024
-0.950181 -1.65204 -5.68721
-2.58488 -1.88219 -7.68645
6.78137 0.0370083 -4.23039
0.0739594 -1.55062 5.73945
2.89214 -6.38729 3.24364
-0.478775 0.574025 8.59327
0.513435 0.704799 2.61323
-0.395391 -0.176322 -2.40996
0.781496 -1.94554 -2.17173
2.71481 2.295 4.47923
-0.265143 -0.629196 -2.82189
2.22386 -5.5959 -4.41099
-0.831216 -1.21768 -2.71475
1.45068 3.62602 -2.8113
2.91724 -0.410523 6.75289
0.916823 -2.72116 -5.3824
-0.699262 -2.27882 5.46171
0.588333 1.65608 5.49711
1.39923 -1.86525 5.85078
1.37409 -0.568601 3.01331
-4.63527 4.69983 3.7561
-1.31905 4.53828 6.59457
-2.07096 0.243284 4.33739
2.77049 3.17493 2.30816
-2.50318 -0.739391 4.96624
3.77732 1.43594 6.99013
-3.30672 -3.17951 2.92867
-1.77876 -1.0412 -2.622
-0.959226 6.05528 4.04624
-1.7964 3.16992 0.678021
-0.845363 -0.457425 2.8483
-4.71004 -1.31512 7.67597
-1.87927 -2.04015 2.23214
-1.55308 -2.36133 -2.16963
-0.619345 -3.62759 -3.05319
0.622433 -0.243603 -2.61168
-0.305781 2.00253 -3.31701
0.213614 0.271067 -1.19072
5.13119 0.960629 4.89283
2.65151 1.01916 1.04644
-4.14719 -3.82808 1.45622
1.78622 -0.546206 6.22787
0.469696 -1.36671 -6.03128
-0.62684 -0.636831 -3.67768
0.251458 -2.28751 -2.48646
-3.19029 -0.0576913 3.30538
-2.17094 -2.02296 3.85468
0.123254 -1.20372 1.13456
1.73156 -3.54968 4.10504
3.19539 3.32123 3.23848
0.996831 2.37426 1.18872
2.03465 -1.75178 -5.79765
0.0363016 1.26351 -10.283
0.947804 1.92219 -2.16077
-2.97577 -0.980454 -2.28125
-1.7355 3.61032 -1.83564
5.73859 -0.398701 -5.46785
6.20467 2.66932 -3.08329
-2.44356 -0.896784 -3.88622
-5.27243 -1.28517 -3.79728
-1.93668 1.50129 -3.53209
-3.35643 -6.58674 -8.87041
-1.19701 2.96467 -2.97287
4.89897 2.14125 -3.35119
1.09871 -0.139389 -3.20499
3.60255 -0.460449 -5.89973
3.47231 1.76926 -4.45505
-1.5962 1.40571 -1.54534
-4.23205 -2.26166 -2.8396
-1.15782 -0.374565 -2.40451
0.580844 1.30531 2.4344
0.376176 -0.906157 2.03825
-0.333566 -6.14488 1.75701
1.72574 -3.54693 1.57089
-1.19526 -4.71092 2.39838
4.09574 0.121534 4.711
2.28123 3.66592 2.09385
0.268719 -1.73129 3.42072
-0.718029 -0.612638 4.05345
-0.221805 -4.95905 8.48959
-0.197367 2.45765 1.93986
2.18984 -1.78926 2.10443
-0.253647 0.150629 4.56475
3.14177 -1.37463 5.53732
0.233931 -3.17117 3.95932
-0.0087067 1.08865 0.834605
-1.85059 0.461556 2.73316
2.4816 2.78272 7.46893
2.07686 -4.1545 3.1921
-3.31654 -0.887198 5.67196
-5.11531 -0.943018 6.04593
-1.82157 1.07523 2.79317
1.7961 4.94121 6.18215
2.35443 -2.22032 -0.955306
-0.310128 3.41647 -3.97241
-2.29502 -3.18849 -2.88194
0.996469 -5.1114 -4.48166
-0.46269 0.209122 3.51584
3.07296 -6.80725 5.77973
2.66506 3.38162 4.14252
-1.50946 0.949575 3.93238
1.41431 0.0109775 -4.48012
0.462967 1.46498 -1.78714
-1.00762 0.703917 1.2662
1.47811 -5.06072 -4.0051
-6.53962 -2.75669 -3.35631
0.679235 -0.0786891 -2.13513
1.76095 -2.41608 -4.27089
0.206575 -0.320564 -5.43302
-2.50817 -4.07363 -7.72044
-1.00244 1.71334 -1.5172
-0.020034 5.39087 -2.76224
-1.57815 -1.68975 -0.771459
-0.372555 0.0444513 -3.2581
-3.4873 -0.958775 -5.16133
0.968192 1.00728 -3.71471
-1.93734 0.837291 -2.28255
-0.916642 0.863051 2.05053
6.35484 0.719895 7.51402
1.05863 -0.923494 4.35733
-8.21793 2.15146 3.09099
-0.835557 0.86061 1.27784
6.06083 -1.36457 6.25086
3.60057 0.533965 2.94531
1.15793 -2.08534 3.02324
-0.175725 -2.00143 1.48322
-1.78074 -1.24416 2.75825
-0.388822 -3.30817 2.57766
-1.3328 -1.48614 -1.99446
0.563808 0.095239 -3.16407
-2.09785 -0.717642 -2.02242
-2.82162 -5.54868 -4.56746
-0.375987 5.62037 -4.76163
-0.767602 -0.466485 -2.55873
-0.595303 -0.463714 -3.50368
-2.39634 1.04007 -6.22226
0.911489 0.607885 -3.27211
-1.46658 2.11055 -5.2826
0.412826 1.21579 -1.53201
1.32919 3.38812 1.60573
1.42181 0.0925306 1.03577
-0.962539 4.67548 1.04783
4.05962 -1.34434 6.29802
0.909069 1.69828 7.38022
2.98256 4.87196 5.59458
-0.791427 0.263453 3.43521
-0.983535 0.720633 -1.09089
-1.45653 2.36808 -2.13859
2.78362 -2.69815 -1.75345
1.60952 -1.47075 -2.99473
1.01773 -1.50446 -3.34175
-2.0402 2.72693 5.06412
2.25463 -0.11394 2.81821
1.92438 0.195031 4.17143
-1.03291 2.12909 4.4997
2.65515 -3.93428 4.27587
-1.31747 1.4156 1.88235
-1.46205 0.574177 -2.65581
2.8065 1.49561 1.72522
1.08876 -1.10987 -1.55684
-0.896717 -0.944194 1.9733
3.28052 -1.94203 4.08781
0.167845 -0.662125 6.02856
0.840067 -2.3336 4.66448
2.27434 -0.641392 2.29099
1.01308 -2.20186 0.901536
1.79455 -0.779579 1.72913
1.81046 4.65925 4.60009
2.13375 0.459517 1.61278
1.22714 -4.0855 2.3014
1.38309 2.54315 -1.68431
5.38219 -0.680243 3.53394
-2.08981 -3.7954 1.65317
1.57987 4.45811 5.07671
-0.254621 1.52153 2.60216
-4.56914 0.505595 4.70906
-1.31961 -2.8241 6.56401
-3.16769 0.980155 4.34013
-5.95641 -3.35804 -1.98754
1.11255 -0.853208 -3.54926
-0.992166 0.233644 -3.24085
0.147375 -0.334504 -1.40884
-1.32683 2.17526 -0.747342
1.53781 1.51316 -4.71934
0.543657 -1.29596 -3.65673
0.928375 0.153316 -2.90327
-1.19552 0.0706662 0.697541
-6.26354 5.65353 -4.08212
0.953286 -1.42716 -2.80889
-0.593912 0.773327 -5.18166
-1.88842 3.22094 -3.02492
-1.27513 0.873082 -3.27947
1.28875 -0.63722 -4.30634
2.30567 -3.10944 4.39031
-1.2446 -8.86714 3.86782
3.22791 -2.69223 -3.46226
0.669933 0.1762 -5.85697
0.804006 1.96815 -3.58636
-0.461311 -1.67091 -5.81835
2.37495 1.60609 -1.8687
-0.633095 -0.693845 -6.6487
-2.32102 2.30898 4.06803
1.98289 -0.983007 -3.53989
4.64153 -5.56328 -1.4197
0.503612 0.728607 -7.96201
2.99652 1.68479 -3.84171
0.059245 1.00721 -1.58836
-0.570685 -2.10205 -5.92892
3.6893 -0.183205 -1.11101
-0.480235 -2.51135 -2.88142
1.20704 0.483715 -1.80367
-5.06543 0.497263 -2.09778
0.683365 -1.06554 -5.75357
-4.18039 -1.99769 -6.41997
2.70646 1.60417 -2.10417
-1.84045 -0.904291 -2.3585
-1.91927 -4.63918 -3.57244
1.60058 -1.16902 -3.29744
-1.47435 -1.81527 -2.33795
-1.25913 1.67828 -2.56993
-1.33305 -1.62809 -6.67232
0.0836623 -0.948813 -1.81486
-0.904755 0.14572 -3.17909
-0.842601 -0.724773 -4.68643
-1.04517 2.59335 5.82411
-0.696955 0.837232 2.36746
5.94489 -0.222275 3.32402
-1.66972 -1.82697 3.63192
1.25139 4.22015 5.98616
2.24496 0.734098 4.03751
-0.439908 -0.372227 5.69919
3.43499 -1.13276 4.82939
1.87801 2.513 5.15017
-0.80001 1.02696 1.77374
2.81027 -0.999612 3.58561
-1.84361 3.64835 7.95339
-3.3475 2.89817 4.05522
0.28667 -2.1529 2.94499
0.786062 -1.036 3.49444
-2.38181 -1.3982 2.12276
1.22056 1.10348 3.19964
-2.56059 3.68976 1.75577
-1.64196 -1.1538 2.26122
5.8492 -1.58445 3.66651
4.36488 -0.903471 4.20013
2.59799 5.51058 8.3754
-0.769878 -3.61705 4.92388
0.901195 0.456601 3.37206
2.27993 0.830167 7.32836
3.68608 1.29215 4.9899
-1.5463 -0.120068 4.10014
-1.33542 1.4204 -5.09689
0.6104 -1.35471 -4.60891
0.114514 5.63065 -3.53069
3.1004 -2.90308 -7.61734
-0.0846824 0.263798 -1.85253
-3.07159 -3.64235 -4.93196
-2.29478 -0.395114 -4.05206
-0.379526 0.278305 -1.604
2.6984 -0.545333 -3.75137
-2.06545 -0.636692 -6.595
-5.85109 -3.4253 -3.35525
-0.758784 -1.11952 -7.35435
-0.161186 2.51959 -4.62659
3.89918 -0.184725 -6.50435
-0.638144 2.54894 -2.81008
1.21772 -2.58679 -2.59255
-0.243317 1.59673 -2.59988
2.01903 5.07854 7.54183
0.685167 2.18603 0.882841
-2.68594 -3.58009 5.18343
0.636414 0.157816 3.22482
-0.0944327 3.94192 4.67092
-0.694326 1.77366 4.12329
0.837446 -3.92128 4.98624
-2.87564 -3.42694 -4.46238
0.365777 0.907334 -5.17632
0.0275932 0.75884 -6.22303
1.8351 -4.51441 -2.25437
3.50436 -1.95849 -0.944347
0.160052 -1.43036 -3.25243
0.495284 -2.70116 -2.69802
1.64065 3.94124 1.3839
1.71121 0.527994 -1.69167
-0.374124 -1.65087 -1.36547
0.505284 -2.79693 -5.72688
4.20222 4.77939 -7.28384
-0.391354 -0.679207 -2.03522
0.482285 0.0712549 -3.76945
0.867356 -0.597635 -1.87368
-3.27445 -1.56922 1.36822
-1.11038 -1.64993 -3.21755
1.58761 -0.546168 -6.16121
0.688554 -1.42422 -1.2569
-7.09821 -6.9984 -2.96345
0.662238 4.26974 -7.22942
-3.14049 2.60432 2.04041
0.618821 0.215125 1.72262
-2.20529 -2.96851 3.06078
3.64952 -1.28445 2.14473
-9.89808 -2.25216 3.41027
-1.34401 -6.65334 5.33545
1.82819 -0.903384 1.45139
1.04945 -0.744612 2.19777
-0.536135 1.41497 2.53651
-0.408718 2.4102 6.94914
-4.48283 -0.197779 1.61244
-2.68971 0.178238 6.64851
0.580127 1.53665 3.42686
1.69389 -0.839347 -1.61807
-6.92317 -0.509546 -2.05725
-0.871281 2.353 -7.22152
-2.03432 -1.61739 2.10533
1.0897 -2.32416 3.56264
-3.01396 0.323145 -1.80403
-3.61534 0.699401 -7.42054
4.70225 1.7779 3.98981
0.675968 1.56856 -3.54387
0.0639244 0.519453 -5.24956
0.106534 -1.42606 -2.32061
2.24742 -0.95494 2.6354
1.36165 -2.01044 4.11389
1.8978 -1.22016 -5.45054
0.252982 -0.169426 -3.95144
-2.70886 -2.50903 2.82489
-0.854788 -0.103835 2.32726
1.03819 -1.12421 1.70194
0.271676 3.17957 1.61307
8.23717 0.793375 5.43544
0.219138 0.825529 1.90901
3.47463 1.71994 3.55202
2.31141 -0.460588 -2.59187
2.74009 0.311044 -0.415771
-3.50764 -0.741162 2.80477
-2.84466 -0.0118494 5.27928
4.96161 4.25264 4.89091
1.641 -2.0029 3.64531
-1.18984 -4.12534 5.2634
-0.336972 -0.260077 1.40585
0.230553 0.096942 -6.47006
0.808582 -0.419922 -2.82843
2.0831 -2.38752 -5.8469
1.0288 0.153682 -5.60008
-0.338022 0.457208 -3.77851
3.08311 -0.326149 -9.75813
1.51732 1.93059 -4.95663
-2.14169 -2.67903 -2.48859
0.466545 -1.64529 1.99559
1.02123 -2.18835 -1.92347
0.435931 4.1897 1.19443
-0.159368 -0.0979377 -0.846735
-1.52591 -2.24745 0.847786
-2.56665 -1.66894 3.02371
0.592551 0.400087 1.64082
1.65117 -1.84099 2.11846
0.381983 -0.169696 5.48763
-1.36504 3.98256 6.31107
2.79257 -2.94987 6.02181
1.50524 -0.690459 8.20332
2.30124 1.27228 4.73156
-2.04129 0.417824 1.95519
2.2337 -3.12437 -7.49137
-1.45445 -2.80914 -3.26358
-2.58368 2.70972 -3.01902
-0.706962 -0.660143 -1.01945
-1.33873 -2.24274 -4.39924
6.6548 0.578519 4.34627
3.12629 3.74578 7.09053
5.45641 -0.703098 8.84632
3.69016 -0.13299 5.29293
0.74014 2.55756 4.89466
-0.095771 2.36003 -3.35486
1.34404 3.82233 -4.34369
1.07347 3.45855 -5.60425
1.71525 0.627359 -4.36212
-0.517918 0.415738 -1.67145
-1.63614 2.33863 -2.32665
2.84304 0.184355 4.84604
1.42114 -4.08686 1.59802
-1.5284 -2.81171 -2.21147
0.196694 1.14484 -4.90248
1.71834 -0.314346 1.90896
0.260026 -0.667962 3.22897
-2.54376 4.17638 5.52164
3.48637 -2.31502 3.46295
-0.885025 0.60884 3.28493
1.89695 -0.158318 2.20125
-1.92475 1.15221 -2.80347
4.43428 -0.525452 -3.78011
2.16278 -0.0993943 -3.2741
2.53999 -0.974832 2.1177
0.698519 1.22276 -1.52501
-0.498386 3.08138 -4.00627
0.192599 -3.23735 1.33472
-0.541468 -2.16752 -0.929195
1.97901 0.366276 -1.24022
-0.8872 8.31958 -6.09065
-1.35202 1.94471 -2.10091
-2.52681 -1.93198 -5.14606
4.86165 -0.246848 -2.09655
1.11918 2.05215 -2.51746
1.36301 -0.33835 -6.0486
1.67314 -1.89925 -4.49004
-1.3032 1.63258 -3.44431
1.84227 -0.198697 -1.47609
-0.78322 -2.81926 3.42154
0.108252 -5.04841 3.28936
4.37958 -4.18375 4.95998
-2.30003 -0.444929 2.80921
-3.5083 0.511754 -2.49187
-0.123099 -0.279674 -2.64398
-1.0766 -1.73954 -11.125
-3.70892 0.985004 -2.46968
2.55511 -0.918441 -4.29553
-2.07622 -5.04412 -2.88448
-2.92238 4.43891 -4.22193
-0.368012 1.09202 -1.68017
-2.34359 -3.70137 2.93007
3.24825 0.447202 1.13038
-0.205974 0.410818 3.68429
-2.29408 1.2621 4.10672
2.15475 1.42461 6.6616
2.62996 -1.1276 2.90208
1.23715 -0.5525 3.65
1.47239 0.130773 4.65003
6.5836 -1.55248 4.76037
-0.23757 -2.4461 1.7213
-4.18254 1.96519 3.2065
0.402061 0.94284 1.40432
2.10047 -2.63182 -3.36971
-4.17457 0.491377 -8.65238
4.2688 0.997305 -5.21747
-2.82984 -1.85079 -2.52341
-0.293029 -0.894362 -2.98067
-5.38226 5.91664 -3.40605
3.24615 -1.60843 -5.06715
-0.753549 4.75097 -5.80682
0.649423 0.685777 -3.34907
0.815384 -1.43064 -1.95248
-2.03425 0.0573225 -3.58809
0.38675 0.696833 -0.809869
-2.60965 1.95716 -4.61527
2.74634 -0.276843 -6.75227
-2.69009 -4.04489 4.60432
1.85667 -1.00941 1.83772
-0.0626208 0.992983 1.1173
2.22622 -0.281413 2.44602
0.366313 -4.37536 5.41079
-2.68263 0.42437 1.39426
3.43343 1.75818 -1.82065
3.58299 -2.33287 -3.55524
2.47107 -0.413729 -2.92526
-2.05043 -1.31144 -3.63761
3.91622 -1.00071 -2.81091
4.09683 1.63872 3.2929
-1.23588 -1.44677 1.576
-3.83844 -1.19447 3.1603
1.39783 4.33838 8.71287
-0.544098 3.50933 3.9004
0.34471 -4.01601 3.76101
-0.839808 -0.665393 5.84981
2.06838 0.261699 3.5684
1.24474 2.15025 3.84743
1.99837 0.649951 4.81782
-1.31747 -1.37463 3.45068
2.60018 -2.43435 -8.39548
4.70141 0.0361934 -2.50406
-1.6553 -1.7448 -1.79409
0.829819 -0.278854 -2.39804
0.0339352 -2.18609 -1.13783
-0.363968 2.09087 -0.920444
-5.57781 -1.54962 5.16275
1.45699 -2.64169 -1.34934
-4.11503 -0.208268 5.14209
0.274076 -2.57368 1.60602
-2.87343 -2.339 1.86205
-0.605074 -0.771427 3.86278
2.51837 0.559643 2.79374
1.11766 -1.2133 3.26111
0.979409 -0.57188 1.862
0.592067 -0.19681 3.46912
-1.89832 -1.09485 4.28738
3.3982 -1.14202 2.1339
1.14451 0.189071 4.97476
-4.11618 0.602011 -3.30789
0.0417422 2.1123 -2.24608
2.36334 1.28753 2.59921
-0.102962 -1.63073 3.05108
3.93749 -5.92962 5.12199
0.994662 -2.53748 1.87798
-3.29158 -0.950164 4.87905
1.07669 -0.616129 2.60928
-1.69971 1.91532 -3.24368
3.70214 2.47649 -2.48166
-0.287058 -1.93793 -0.895945
4.43089 2.91832 -4.79783
-1.66556 2.33372 -4.81226
-1.01985 -1.58611 1.50451
4.77437 5.8051 -8.86758
1.89904 0.367188 4.97737
0.335255 -0.562506 7.53367
5.59183 -2.07649 3.31839
-3.30688 2.51293 4.61577
0.154259 0.0107045 -1.12495
-0.591893 0.426486 1.03209
3.8644 3.91372 -5.81684
0.430993 0.571861 -2.09739
-0.91356 -0.640281 -2.99889
4.76741 -0.125909 5.23428
-0.709386 -1.49051 6.09434
1.23941 1.73487 5.24063
4.48926 0.607749 0.692878
-2.74982 -0.503669 2.3467
0.065164 -0.858355 -0.384023
-1.96557 3.30968 -2.93827
-1.31057 -1.57813 -3.85733
2.51577 0.456865 -5.84265
-0.248322 -4.79444 -4.12207
-5.61183 0.683718 -4.90678
-3.29982 6.82213 -4.58054
-2.48608 -1.22818 -4.68078
1.06901 -0.33855 -1.9227
3.61403 2.50766 -5.84315
3.14964 1.02525 3.28836
-2.61628 -0.582738 6.96231
3.4079 -1.47612 4.38783
-1.87449 0.978413 6.94744
-0.270091 3.34593 2.50693
-1.27492 -0.166495 2.31444
-1.13435 -0.945582 3.11728
4.19772 1.60334 2.61646
2.28211 3.03957 2.45094
-0.537093 -0.345416 3.99653
-2.42719 0.160191 4.50546
1.5793 0.725713 3.21548
0.0337307 1.13616 7.05611
1.27428 -0.558469 6.15816
1.88089 2.40481 2.22999
-2.97442 1.98719 3.45143
0.0558929 -1.64038 3.17825
-0.452401 3.0365 4.24817
0.418127 0.139823 5.72276
-2.103 -2.51208 9.1486
-1.73934 -2.07336 2.00195
-0.180189 0.413732 2.58245
-0.426992 -6.6004 7.03235
-2.57094 -0.512226 4.1556
0.537509 -0.871936 2.64966
-1.85279 -0.663872 -3.9001
-1.69524 -2.55285 -5.0609
1.42167 1.6161 3.65541
2.9856 0.249649 6.67577
2.27814 0.26874 2.57869
1.90482 0.661786 7.83762
1.7631 -1.15153 1.43495
0.258019 0.889281 2.50088
-1.05523 -4.49172 4.36338
-2.53898 0.524725 2.40447
2.80905 -3.00431 3.33747
2.68161 0.0392679 7.30345
-0.180251 -1.60908 4.2697
5.76772 -2.70821 5.87379
-0.420266 0.901313 9.55321
-2.44734 1.75548 4.91038
-1.3474 -2.0495 2.2177
-2.38067 -1.00265 1.75916
0.625541 0.606951 4.5771
0.511391 1.27642 5.63958
-1.37192 1.3042 5.01622
1.86929 0.734174 3.8297
-0.836387 -3.83844 4.34584
4.70952 1.57393 6.12336
1.68133 -2.25842 1.37474
-2.1026 -0.979876 3.1755
0.605118 -5.10686 -2.83404
-0.524585 1.09231 -2.54618
-0.336198 2.1018 -3.31253
-0.596599 -0.271199 -5.05902
1.52467 -1.38768 -3.27641
0.479831 0.256521 -1.7653
4.51433 -2.37488 6.40937
1.13665 -2.23244 4.82708
-1.58868 2.90841 3.42025
-1.61064 -7.22842 6.13554
2.06023 -0.271401 -3.23286
1.86779 0.719786 -3.62003
-0.999458 -2.0475 -4.77487
-0.109017 -1.49557 0.434822
1.47024 -4.17863 -7.39887
-4.046 -2.83758 -7.40282
2.06076 -1.9538 -5.63365
3.98294 -3.20705 -5.00273
1.74709 1.00082 -3.17434
1.54716 -0.619804 -0.512299
4.71997 0.413398 7.47879
-1.85045 -2.7564 1.80837
5.59579 -0.785536 -2.90072
1.15628 -0.40122 -9.79208
-4.63131 -2.05205 0.947946
-0.700124 2.42995 3.74749
1.75531 0.434754 -1.42419
1.86621 0.859756 -3.58376
2.17582 -1.49165 -4.11407
-0.766782 1.337 -2.0457
-1.53885 0.129239 -4.95413
-1.02995 0.563663 0.832739
0.744568 -3.20602 2.18333
-3.22859 2.97031 4.60187
-1.94518 1.99416 5.62769
-0.4804 4.32548 7.1988
-1.19846 0.0170853 2.28122
1.28371 -1.47055 3.96776
0.608343 0.0901874 7.47559
-1.79658 -1.90998 2.7655
3.94167 2.17788 4.74696
-0.513975 -0.291351 0.647124
4.78736 -6.66299 9.15041
-3.15654 -0.788009 5.34926
1.40109 -3.73494 6.35596
2.72144 -1.06934 -0.668565
0.041758 -1.2703 -1.68458
4.66715 1.00527 -4.29446
-0.101083 -0.0164133 -1.03777
-0.290162 0.373214 -7.94645
-3.43744 -1.13384 -3.78501
-3.21388 -0.262201 -6.10745
1.98193 0.757269 -2.33708
-0.00909599 -0.372146 -5.31982
0.811418 0.715824 -2.99752
-7.51429 -2.22486 -4.70038
-7.00742 0.885917 -5.89147
-2.89108 1.52266 -7.29909
2.04467 0.811636 1.62494
3.40745 -0.924585 -3.96604
-0.99517 -0.788882 -2.90603
1.37682 -0.0492534 -1.00252
-0.00220869 0.946648 -2.22562
-1.24966 -2.62959 1.22846
-0.833647 -2.32223 3.01459
5.05698 -5.77799 4.01424
-3.83141 2.77562 1.77451
-0.993295 -4.34189 1.69612
-4.58006 -2.97476 2.6708
6.04246 -3.24324 6.36653
5.41705 -3.76108 6.77934
2.29053 2.76385 6.42466
2.0647 -3.82931 10.7758
-1.11692 1.54795 3.50861
-1.4028 1.38221 3.83421
-3.2349 -2.99519 -2.35544
2.32269 -1.64082 -2.11254
-0.599401 -2.18328 -3.50248
-0.305979 -1.02555 -3.29348
-0.57778 -0.836123 -2.62354
0.432761 -0.906426 -3.53651
-1.50142 -3.22309 -4.47851
-1.06599 0.87036 2.26076
-1.15077 3.72677 -3.00511
-1.41909 4.54381 -3.57711
0.303581 -1.40187 -2.94239
5.18034 0.916578 5.62129
2.93382 6.14768 2.66277
2.96918 2.67257 1.14594
-1.283 -1.07766 2.47292
0.35974 1.25088 0.876184
-2.06943 -1.53256 2.83986
0.698116 -0.657735 1.61796
0.615741 1.33213 3.30668
-1.46757 2.54015 4.40492
2.18205 -1.44156 2.70009
-0.845264 1.42982 2.03729
-0.188023 -0.508086 -1.57686
1.00595 0.564051 -1.95501
1.36432 0.434443 -3.03236
0.856221 -0.939577 -4.17824
-4.92184 -3.54019 -6.56223
2.90904 1.40835 -6.32496
0.0686069 1.73303 -3.12434
-0.360351 0.424745 -1.24581
-1.57176 -1.12894 -8.23247
-0.278006 0.442903 1.21925
2.25474 0.377198 4.42839
-0.789669 -0.663222 -3.31538
-1.68781 -2.7755 -2.97243
-1.28676 2.92894 3.8671
-1.02382 0.402233 3.02618
0.0360092 -0.912975 3.50043
-2.05955 1.08731 1.58659
-1.05327 2.77426 -3.73494
2.68221 1.06859 -1.83437
1.33285 -5.08142 -5.22801
0.212927 1.04802 -1.59863
-4.7697 3.22498 -3.54972
3.79876 -0.223863 -4.28167
-1.51982 -1.48888 4.7027
-0.763727 -0.0406427 6.31766
2.61979 -2.83361 5.40797
-0.304997 1.21649 1.4441
-7.53255 5.79958 -3.35718
-1.09116 -1.85869 -3.3544
1.00789 -1.59077 -1.83229
-1.94703 1.8709 -4.38116
2.49019 -2.6793 -5.64555
-4.43237 3.78541 -3.16815
0.256705 1.99417 -2.79498
0.496192 2.55692 -4.32864
-1.89328 2.22399 -5.13494
-0.119948 -0.593324 3.61257
1.34795 0.30714 2.07401
0.499379 1.26828 -2.35394
1.17624 -0.43747 1.10616
2.97319 -0.866971 3.77266
-0.463976 1.38888 4.77953
1.58991 3.58344 -2.11714
1.67809 0.588295 -2.88222
0.938566 -0.422296 -1.68398
-2.43963 0.456621 -5.06342
-1.56964 -0.989406 -2.52179
-3.30304 2.77142 -2.57063
0.863244 1.96159 -2.22566
3.36835 0.79331 2.16093
3.59352 -1.89555 -1.95281
0.447744 -2.33583 -4.78358
-1.54638 2.10067 -2.92444
2.24753 2.03616 2.53524
1.30969 -1.02538 -1.68613
1.26862 -0.600303 -4.80607
-0.742569 -1.6356 -4.70426
-1.8766 -2.94363 -3.4202
-1.69782 -2.29945 -2.27685
1.9748 -2.39151 6.2693
1.0822 2.08722 3.47022
2.52419 0.26079 5.02423
2.34814 -3.26836 -2.45572
5.86953 1.41908 -10.5074
2.70967 -3.19279 -1.19025
0.386712 -1.63115 -5.96491
1.31957 0.973904 -3.72593
-0.370262 0.0923309 -5.52689
-2.54725 1.39636 -3.49645
-2.82936 -1.38279 3.37728
0.533416 0.601526 -1.21116
-0.478197 4.33484 -3.35299
0.33591 0.695549 -1.04556
0.819573 0.58138 -2.92104
0.45 -0.0100956 1.88786
1.01909 1.32054 1.20273
4.59834 -2.36969 4.64315
3.34857 1.0953 -4.23411
-0.540982 -7.61749 -6.9189
-0.352587 -2.32264 -2.56268
-0.638582 -0.864619 -3.43795
0.156261 -0.352387 -2.98766
2.59113 -1.68839 -2.68898
-1.82765 -0.0753636 -4.10426
2.57474 -2.55053 -2.75655
-0.99296 2.20439 -1.66645
3.66842 2.19866 -3.24948
2.69431 3.70271 -2.67824
-2.6385 2.20536 -3.06503
-4.60051 -1.66082 -4.18843
0.700275 1.72702 -3.04434
2.13939 1.31384 -1.57742
-3.84776 6.03016 -6.02064
-0.253222 -6.28384 -6.48451
-0.34123 -1.75821 -4.49196
1.20307 0.595728 -1.43493
3.40701 1.84218 -4.71084
-4.91424 -1.519 -3.40635
-1.14432 2.63307 1.01073
-4.35109 5.92355 5.07208
-2.10596 1.28578 2.83428
-3.15181 2.53419 3.86343
1.37178 -0.405501 2.01304
-3.35052 -2.55184 3.94188
2.06897 1.80447 4.70149
-2.18593 -1.14215 -2.15028
-0.685596 -1.80305 -1.32801
-0.201356 -1.96862 -3.59216
-1.63423 1.18547 -3.52023
1.11068 2.09496 -3.28546
0.699208 1.56156 -6.36483
-0.643383 -0.718542 -4.27056
-0.0862607 -1.48541 0.707737
-1.3126 1.26354 4.05842
0.516222 0.555045 1.74844
2.1581 1.66134 -6.82258
-3.05965 -0.337088 -1.92967
0.487977 0.911757 -3.81966
4.3559 6.34143 -4.08904
1.33724 2.7513 -6.56314
-0.0618555 -0.0841028 -2.73504
-0.567368 -0.670635 -2.01702
-0.115543 -3.23445 -4.26455
3.21032 -0.462465 1.84398
0.394244 1.85832 2.89414
-1.10214 -0.42826 5.75623
-0.583959 2.49165 -2.15
3.15258 2.34234 -3.49028
3.7659 0.693582 -6.67648
1.95787 -1.29632 -4.59423
0.945198 0.297109 -1.74586
2.63035 -3.90349 -4.46473
0.359551 -0.444531 -3.23815
2.15973 0.824047 -5.53894
4.34189 1.54423 -5.51127
-6.03507 3.86597 -2.15031
-2.2855 -5.16996 -4.34218
1.66656 0.84339 -4.05829
0.473309 1.29278 -1.24473
-0.0807683 1.07424 5.67805
2.65834 2.64008 2.74687
-0.151759 0.613112 5.24189
5.17566 -4.39358 8.19837
1.01327 2.0083 1.96601
-3.12873 0.307184 4.56001
4.20091 3.16769 3.6271
0.77839 3.29552 2.42145
0.698738 -0.556971 3.48305
2.69369 1.25498 5.18774
3.91477 0.515798 5.44122
1.09288 -1.29939 -0.940083
0.846864 1.8308 -6.8036
2.41551 -0.777263 6.98923
0.770131 -2.61621 -2.01458
-1.32516 -1.17488 -2.61782
-0.0262128 0.677301 -2.16516
-3.25816 1.1457 -2.64319
-0.620723 -1.84962 -4.82747
1.55276 0.270793 -1.36578
2.10272 -0.380533 -2.24958
0.0290472 3.50403 -3.8366
2.26489 -0.658642 -4.94378
0.469083 -2.24085 2.78157
-1.56002 4.4294 4.6027
0.973912 1.13586 4.85485
2.74971 -7.01174 3.4153
0.630298 0.436227 4.26117
2.08413 1.02096 -2.58976
-1.79456 -3.8122 2.76018
0.385438 -6.3332 2.39701
3.00347 3.64296 5.72376
2.176 0.380986 2.91756
2.10572 0.534219 -3.78212
0.552051 2.67931 -2.99314
-0.84191 -1.21565 -1.35081
0.820831 -1.43103 1.05597
0.11959 -0.386244 4.39124
-2.83491 -4.70664 7.66822
-3.10257 -5.63287 -2.03301
-6.35028 2.49887 -8.12193
-0.766592 -1.63589 -2.04193
1.20872 -0.872981 -2.30714
1.78126 1.23526 -2.74538
-4.87145 -2.10639 3.79515
0.696718 0.257969 4.31546
-3.55485 -0.663516 -2.87623
1.32572 -2.2292 -8.13247
1.57748 2.56547 3.11597
2.67979 -1.25104 3.7974
3.13243 -4.37889 8.10701
3.23768 -1.27831 8.11534
0.682497 2.22037 -8.01721
0.207501 -2.82692 -2.93304
-2.07008 2.22068 3.09183
-1.17199 -0.0438546 -6.34309
0.497214 -0.76836 -1.1019
-1.13076 9.84139 -6.55939
-3.83812 5.22271 -5.1773
-7.59127 3.68804 -5.21923
0.38179 2.28973 -2.00034
-2.96347 -1.03883 2.93503
0.868649 -0.646853 3.7183
3.15811 1.99035 3.80539
1.11896 -0.428203 1.23745
1.04172 0.895057 4.1191
-0.525585 2.16156 2.93102
1.50154 2.05625 7.71383
0.941433 0.29457 2.27249
3.42884 -0.240946 5.8287
-0.691894 1.64615 2.87895
-0.602067 0.181926 4.30105
-0.84621 0.715047 8.32966
-0.139687 1.64718 5.9492
0.149799 -1.1494 5.69523
1.71555 1.84027 1.27866
1.06371 3.68802 5.828
2.24915 0.78885 5.8566
3.42766 -4.64797 4.56418
0.524944 0.683164 -1.79738
1.08038 -0.883289 5.16573
-1.44282 -0.318926 2.04352
0.495043 -1.94032 1.41807
-0.857967 0.551417 1.91068
-0.0980355 -4.96965 5.98226
-1.81939 -2.31662 5.9687
1.5021 -1.8115 3.72986
-0.139772 1.08944 3.94128
-3.71917 -2.83733 -2.40489
3.43632 -2.44699 -3.34188
0.832955 -0.242705 2.59552
4.19472 4.38605 7.04678
1.24222 5.36482 6.43672
-0.454927 1.44868 1.92122
-4.73586 -2.3775 4.3265
-0.985871 4.29869 4.21801
3.71418 -3.51688 5.03339
-1.1113 4.44015 -1.62099
-1.10412 1.46337 -2.78623
-0.801858 2.43506 -3.47288
1.81421 1.77607 -6.21683
1.46032 -3.81214 1.30891
-0.491107 0.956303 -3.61812
3.68109 1.52925 -2.00456
2.49539 7.60279 -2.02385
1.12435 -0.816088 4.27134
-2.71161 -4.10621 4.06896
1.69156 0.579963 4.54709
-0.364318 1.01059 3.05098
0.2544 4.12589 10.0777
2.16416 -1.5457 6.40946
2.29845 4.00585 8.80153
3.65223 4.86149 6.91302
2.57171 -4.42497 7.39264
3.30078 -2.17643 5.06353
-0.908293 0.296632 3.20593
-0.254103 -0.660338 2.29941
-0.412363 -0.1972 -3.35852
-2.38871 -1.69971 -2.44515
-0.720247 0.7264 -3.9712
-3.21013 -1.32985 -5.62461
-2.99096 0.985189 1.37237
-0.992169 -1.04878 -7.56494
4.15061 -0.177799 -3.70545
-3.55246 1.10293 -2.10968
0.145598 0.067457 0.954465
-3.24945 0.934884 4.99268
1.04821 -3.40378 4.91011
-1.1581 1.72952 8.84293
4.95821 -1.42051 2.57766
0.312815 0.815056 -2.8956
3.2122 2.69792 -2.35344
1.08232 -1.92635 -3.96705
0.305503 0.465679 -1.7816
-5.71009 -2.20342 -3.97475
0.823563 1.87404 -2.45962
0.411767 0.854005 3.35515
-0.746925 0.89094 4.59805
0.171098 0.255294 3.83301
-4.77791 0.0553377 0.863557
-2.36421 -1.2703 5.76853
-1.78299 3.19093 2.3498
-1.37798 -1.10816 2.13932
-0.0430803 -0.160922 -3.31169
4.81726 1.22036 6.20412
2.73817 0.814521 3.66327
0.598387 -1.18664 7.61026
1.43625 1.69347 -1.28448
-2.38564 -0.851774 -5.21111
-5.79715 -1.25263 -5.24963
-1.67794 2.78469 -8.63211
-1.80824 3.04363 -2.91053
0.504664 0.110263 -2.40623
0.553626 -0.195726 -5.18128
5.74724 -3.29769 -4.92628
1.21981 2.67871 -4.22869
-2.83572 -3.48989 -6.75419
1.82098 -1.93333 -2.78652
0.277779 1.89197 -3.71522
0.0116312 0.218977 -7.33437
-1.60342 -0.0253944 -2.17658
1.2301 -3.51211 -0.808685
-0.417935 3.00668 -4.01843
1.59769 -0.211512 -3.06909
-0.741049 -2.57175 -3.37882
-5.68112 -0.749472 5.91936
3.05235 -1.31238 10.728
0.707328 0.835845 2.90749
0.244596 0.097024 2.3016
-2.12655 3.35635 7.1433
2.61735 2.18905 5.76487
-1.85176 0.356601 9.28925
-0.708285 3.87687 7.43608
2.57732 -5.1421 4.77075
4.31858 3.22519 1.60522
-0.548547 1.38368 1.93447
-1.70532 -2.86781 2.74126
-3.109 1.68275 -1.14069
1.39731 2.0372 4.96442
1.83936 2.17229 1.72309
1.55483 -0.671156 2.80786
1.20548 -0.21046 5.77881
-1.01994 0.928902 3.06221
0.605519 -1.25598 1.31263
3.42595 -2.10989 6.91679
2.21659 -0.854567 2.80755
-1.19049 -1.24062 2.64334
1.66533 -1.44689 3.28096
3.4066 -2.04718 3.63113
3.55239 -3.87427 -1.459
7.51644 0.829512 -1.99467
-0.250335 0.220385 -1.08834
-1.60867 -1.52769 -5.76318
-4.46665 0.470544 -3.0118
-0.923066 2.89923 -2.34216
2.83657 1.14135 -2.3531
-3.46717 -3.68543 6.76786
-0.96281 1.3596 3.31903
-3.3947 1.40226 4.22745
-1.73295 -2.09846 1.58823
-1.06408 -3.20907 -1.07623
0.649797 -6.25042 2.81255
5.27662 -1.90788 4.67843
-1.68548 1.18826 -2.90802
0.0566333 0.234389 -2.40266
-1.45127 4.43966 -6.90892
2.14785 1.10362 4.69833
1.34596 0.0509826 2.5448
0.749999 2.60236 -2.33694
1.99252 0.806413 -9.06197
-1.23727 -1.7604 -6.78308
0.877567 0.790397 -3.13041
0.00308293 1.99661 -2.42161
1.21667 1.42842 -1.7863
0.780763 0.318245 5.31187
3.12963 -2.5584 4.47935
3.5788 1.99606 3.12834
1.20226 3.46612 3.84916
-1.29716 -1.57754 -2.88464
-2.77017 -1.40967 -2.68344
-0.00187548 -0.58681 0.966922
1.05151 0.129759 -3.54687
2.88393 5.51865 -6.85913
2.06277 1.64151 -2.66567
-0.864036 -0.253968 -5.28404
1.36147 -2.99288 -3.70062
-6.10639 -0.656443 -3.65484
0.300962 -1.42859 -2.14852
2.25836 -1.05554 -6.48506
0.900821 -2.71245 -8.64176
2.71573 2.17331 -5.79927
-0.220223 -1.22502 4.27055
1.72208 -1.98245 9.4288
-1.90492 0.911695 5.50444
4.63986 -2.05707 3.16425
1.91984 -3.65357 -2.91215
-0.177267 -4.02221 -5.61177
0.564138 -0.457832 -2.54367
1.07931 -1.48026 -3.04261
-1.08745 -3.31229 3.18173
1.36516 -2.3537 6.4492
-0.685714 -1.3838 3.01839
0.251474 0.951059 5.59924
-0.598722 3.91379 5.12114
-1.62264 1.36457 2.60007
1.38461 5.16707 2.48636
-3.7986 -0.473063 3.65684
-0.640067 1.62156 3.46151
0.937485 -0.0792629 1.08143
3.09844 1.19754 -3.16704
0.637201 -2.68135 -0.538639
5.47138 -1.49185 -8.55696
-0.52125 1.88573 1.7633
-2.33383 0.231081 0.817841
0.945334 -0.594498 2.08476
-1.29509 -2.93916 6.07797
2.4614 -0.601174 3.26271
2.50877 0.222124 3.22515
-1.48297 -3.07598 6.3065
0.198787 0.528801 4.48966
-0.843464 4.49395 5.61239
1.41909 -3.31584 7.97911
-0.70795 -2.99497 -2.57925
-0.157855 -4.15416 2.99496
-0.972147 0.853564 2.81396
-1.0962 2.25765 3.63905
2.21809 1.09104 -6.32908
0.38323 -1.64297 -7.79516
-1.1449 -1.27508 -6.31711
3.73823 -0.898007 -4.44607
0.985542 2.2078 -4.21049
3.67899 0.273532 -3.79398
1.53679 -3.94894 -6.0583
-5.44891 1.06424 -4.39456
-5.46617 -0.735036 -4.82655
1.94879 1.62754 -0.891013
-3.91032 0.229222 4.29435
0.483514 -2.83589 2.92669
-1.23483 6.99072 2.81698
-3.11649 1.03471 -0.931882
-1.37625 -0.262567 -1.7085
-0.984921 -1.7857 -3.53121
-4.80337 -4.58859 2.41589
-2.19998 1.46743 5.58527
-0.681626 -1.20942 -2.29139
4.38319 -0.817893 -4.74393
4.00121 4.47798 -4.61435
-1.11265 -4.08803 7.56088
0.90948 0.780604 2.55647
2.70345 -2.64671 3.68355
-1.62152 -2.08634 1.39487
1.32502 0.0453309 -4.15129
3.15385 1.26609 -5.60611
-1.75204 1.41897 -10.4512
-0.153305 -0.21656 -0.977841
1.84482 0.859689 -1.59288
0.00680601 1.03034 -5.21617
3.91958 -2.45369 -2.75629
1.35158 -5.64885 -7.24225
4.75287 -5.24348 -4.79605
4.44822 -3.96298 -4.26382
1.15173 -1.39063 3.0375
-1.39269 -4.36843 4.10967
0.792363 2.8038 3.2184
-2.46119 1.97704 -2.36661
-0.463386 -1.0401 -0.922532
-3.22473 3.15604 -9.15206
1.60126 0.116046 -3.72635
2.71476 -0.457209 -6.10166
9.95618 -2.64351 -4.36659
1.7119 -0.157558 -6.56916
-0.484495 -0.142146 -1.28713
1.60476 0.893536 -1.1997
2.06947 4.12217 -3.84323
1.13031 -0.973171 -5.78471
1.04786 1.19791 -8.89469
3.12412 2.44308 -5.55779
-2.00727 3.33594 -5.19554
-1.12979 -0.604704 4.41927
-1.98912 0.806371 -3.87744
-1.8693 -2.89538 -5.10002
1.02087 1.40327 2.77694
2.71237 0.456059 -3.8316
0.649703 0.228142 -4.16668
-1.54887 0.594113 -4.0766
-0.931745 -0.245781 1.60616
-2.14121 -0.302245 -1.1595
-1.36971 0.00595277 -1.8149
1.26226 0.752049 -3.44133
1.17877 2.52803 -0.917763
0.548734 0.23217 -2.16462
0.336375 4.2195 -6.7771
-4.93204 2.60637 -3.48818
2.13518 2.24354 -9.78963
-0.914832 1.71278 -4.52391
0.776622 -2.09136 4.64067
-0.0816224 -0.0108358 7.49986
-5.43732 3.60317 1.06477
-0.705901 -0.586698 2.70667
-1.74393 0.736862 -1.26605
-1.99131 0.742966 -1.13186
1.46227 1.65298 -4.02981
0.946797 -1.85979 -3.21266
1.40609 0.382348 -3.35856
1.271 -4.66644 -3.52501
-1.18772 -5.43675 -4.95599
2.6882 2.15794 -2.01357
2.13174 1.14973 4.56972
-3.58314 -3.85985 6.78577
-2.10944 -0.632539 8.14595
-5.26874 3.15643 9.8431
-5.21672 2.17626 9.46724
2.84205 -0.499925 1.90215
1.45651 0.856322 1.80419
0.114496 -0.0773854 3.69045
3.79631 -2.29423 2.68234
-1.23655 1.25193 5.82086
-0.631135 -0.352642 -0.825532
5.14293 0.498098 6.19043
-2.17559 1.83581 7.01185
-4.19799 1.83741 6.48134
-3.65909 -1.08538 8.43291
2.16502 2.38572 9.44816
-0.859058 -4.87822 7.2732
-5.14934 2.91143 3.83703
0.427226 -4.43352 1.55451
-2.85036 1.9067 4.81091
1.69086 -1.30368 2.90671
-1.01417 -1.02323 3.92431
-0.59187 -2.88233 4.13281
0.916976 -1.22145 -0.785296
0.438894 -2.31651 -2.05018
0.823521 -2.17437 -1.24156
-2.2387 -2.83472 -3.31205
2.19877 1.08522 -3.23766
-1.98961 -1.85221 3.96901
1.7515 -4.13647 4.45711
-0.0131655 4.1376 2.75736
1.56383 5.72273 3.31561
2.78529 -3.18206 6.25618
-0.232797 1.00705 -0.391057
-1.36124 -1.02727 2.93928
-0.970991 1.49725 3.72875
-2.97194 0.229236 2.56767
-2.9143 -0.761181 7.5556
-2.17466 -3.27185 4.13281
-0.369259 -1.18961 2.59929
-3.64771 -0.524025 4.38593
2.34852 -1.3288 3.33146
-2.83069 4.84655 3.95092
-3.27724 5.82535 4.17168
-4.22676 0.852151 4.23539
0.313519 1.92745 2.25042
0.663239 -0.640749 2.07193
2.62041 -0.319978 5.50469
0.572557 0.976301 -0.909156
1.2011 -1.95473 -3.43427
-3.58669 -1.51681 -4.94624
-0.663732 -1.90625 -4.0353
-2.3801 1.22507 -2.64331
0.337296 1.54257 1.52444
-2.67312 -3.47961 8.19831
-0.892613 2.47949 3.46313
-3.14433 3.47131 -8.31927
-1.79689 -3.62045 -6.82144
-2.88266 -1.82754 -8.62682
-0.10264 -0.641634 -2.99478
-1.04997 -3.10118 6.08223
-0.79185 -4.1153 1.61738
2.36081 -3.56023 4.7662
-1.73996 1.09425 5.10629
-2.86516 -1.38265 -3.34008
4.21489 1.06765 -4.29798
-0.526877 -1.40351 -2.91998
-4.97389 -0.0435362 -5.77399
-1.58085 -2.81652 -1.90042
-3.16461 2.49249 -4.85042
2.00395 -0.956359 -2.09758
-0.960356 1.59017 3.95134
6.97719 1.81661 -4.00399
8.16021 3.16363 -5.8445
-1.64916 -3.13837 -1.01616
0.393263 2.57821 -7.10558
-0.878642 -2.93934 6.3384
0.761277 2.86121 4.08242
0.533979 3.6361 4.01028
-0.295894 -0.287027 -1.42988
3.8373 -2.49819 -2.21371
0.9529 -0.259728 -6.18983
-1.52464 3.61534 -3.58327
-2.1273 0.828757 -2.04013
2.82785 3.49745 -3.18837
0.10138 0.217771 -2.66673
0.802881 0.154497 -2.51658
-7.39387 3.16373 5.48752
-0.377437 2.05614 3.86354
-0.629885 1.07148 2.50448
0.999036 2.34204 2.08256
1.1305 2.91957 6.62308
1.7748 1.72503 2.44373
1.96953 5.35061 2.11635
1.55108 -0.995149 5.96339
-0.490718 1.56382 -0.773282
0.341442 2.75218 2.51245
2.39518 0.480228 -1.89994
-4.63199 2.54646 -3.35306
0.755772 -3.39449 -2.20146
-3.18927 -4.51754 -8.33938
-0.383342 -1.36907 -4.9173
-1.1619 1.24939 -1.08732
0.675146 -0.350678 2.2652
-0.622083 -0.99914 -5.18588
1.31155 0.181368 -4.15006
1.33437 -1.0987 -1.48389
-1.31615 1.07774 5.59002
2.05251 4.46299 2.4326
-4.10465 2.11725 3.51758
1.36298 -0.265722 4.38734
-0.790049 8.06494 5.9421
-0.468924 4.06035 3.84511
-0.758368 -0.421859 1.93217
4.03239 -2.339 2.78199
-1.5606 1.61824 6.78891
0.69831 1.09745 2.86934
-2.16057 -0.610327 -3.97575
-0.250045 -0.092857 -1.21033
-7.9067 1.97093 6.25414
-0.00711813 -2.72301 -3.39297
2.95819 0.132447 -4.26314
2.29597 -0.772331 -0.974378
-0.236663 4.64318 -8.63766
0.581922 4.57009 -4.44588
-1.07595 0.196796 -3.2684
-2.06104 1.28914 -2.52029
0.382059 -1.03315 -2.37185
-1.33746 0.219783 -2.90187
1.33825 1.60041 -1.84971
2.26424 -1.26429 -5.92923
1.26702 -1.83867 -4.3589
-0.136914 4.5221 -3.3447
1.66962 -3.76288 -8.78362
-3.77266 -4.63464 -5.64593
-4.81874 2.00733 -2.5384
2.77489 1.54605 -2.40558
-0.0683118 -0.477755 -1.74841
-2.63819 -1.40919 3.87514
-3.04364 -1.9229 5.03778
1.10949 -0.567307 -3.51322
0.984771 0.800063 -5.61993
-2.85859 -6.98537 -4.05263
-0.89321 -0.720583 1.54522
-0.225923 -0.197131 5.98377
-1.01025 -0.0736189 -2.56019
0.25733 -0.486661 -3.68762
-2.53439 5.37104 -4.17132
-2.70448 -1.21282 -8.22983
-2.00386 -0.541708 -2.79464
2.2968 -0.741768 2.34548
-0.0500127 -0.851492 0.175426
1.92443 0.372902 1.43912
3.16488 1.79279 3.11146
-1.03551 -1.94968 7.00993
-2.39963 -0.423126 1.89419
0.128361 -0.798744 5.13643
-0.437317 -1.12113 1.06652
2.36132 -3.49752 -3.90958
0.38386 1.89629 -4.39401
2.07653 -4.71381 -6.60142
0.831709 0.0562369 -1.83454
3.05919 -0.768208 -6.26812
4.65799 -4.55589 -4.05851
1.30422 1.32401 3.10882
-2.50386 -2.22797 1.4008
-6.02261 2.22476 4.72696
1.17946 -1.01691 7.17988
-3.49575 -1.7818 6.56412
4.79155 1.18555 4.57642
0.325262 -2.84267 4.3479
-0.343104 1.01484 3.11444
1.06446 -2.20746 -1.41375
-1.3654 0.511073 3.38578
-1.76911 2.70063 0.6481
-1.60201 3.11945 2.87607
1.7738 -0.586036 3.30308
3.07336 -2.01253 1.33848
1.25539 0.0537583 4.92951
6.27539 -3.45199 -4.32503
3.43664 4.50684 -3.36026
3.53601 -0.998454 -2.9443
-3.06688 -3.06301 -2.65408
1.34944 -1.99035 -3.81376
-1.14784 -2.79171 -2.16858
1.29392 -1.00758 3.45517
-1.78251 -2.572 4.8095
-1.60752 0.395462 -1.11964
2.87115 -1.89764 -5.52197
-1.7224 -0.221743 -4.5782
-3.75371 -1.39135 -1.99286
0.196745 -2.37738 3.64192
1.79996 1.92341 -3.18533
2.67758 -2.52075 -6.36845
0.304414 -1.13859 -1.55058
2.78515 -0.121807 -3.21115
-1.68257 0.37712 -3.36421
-1.03063 1.82675 -4.20704
1.08382 0.132235 1.59452
-1.68294 -2.076 2.92608
1.80765 -2.88575 1.97831
1.30955 -1.87564 4.27587
1.10417 4.23728 2.87965
-2.19887 1.39525 2.40932
-0.720662 1.74949 2.82818
-5.58454 -4.14766 4.72235
0.49051 -0.419096 -1.4244
-1.14626 -0.24349 -1.88514
0.341835 -0.592993 2.16275
2.87789 4.59486 3.87703
1.02615 -2.58711 1.14762
-1.99 1.7108 -3.90615
1.09639 1.67104 -3.6719
0.210845 -0.138436 -4.08198
0.129825 4.25535 -1.72202
0.25021 -0.178958 -1.30379
-2.10248 1.33747 2.63878
0.69031 -1.94609 4.23007
-3.31515 1.58992 -4.46754
1.34857 -1.21111 -6.96208
1.10087 1.33436 -4.78291
-2.96093 0.545866 -5.00609
0.999873 0.640971 0.680829
0.611822 -0.70676 -0.563602
-0.543912 0.679373 3.68585
3.28239 0.375553 3.2253
-3.94445 -2.03063 7.72071
3.08782 -0.232164 1.69903
2.10714 1.61818 3.41264
0.709127 -0.00272825 7.74917
-5.28927 -0.4367 2.11903
4.11552 -2.18566 3.7052
-2.01606 -1.19061 3.35112
1.88139 -2.09015 4.1284
3.46906 -2.60861 1.71743
-1.06903 4.44859 -5.23915
-2.39391 -2.85773 -3.67138
-2.98074 -1.09858 3.0531
-1.5732 -2.19473 -4.62781
-0.0996056 -0.134425 -4.15865
0.670214 1.33309 3.11774
1.32401 -0.670274 1.23232
1.92092 -2.12238 9.35353
6.9502 -1.12508 -1.23796
-1.50858 -4.37655 -1.8561
4.16537 1.73704 5.04117
0.095403 2.93568 4.5597
-1.43011 -0.0641251 3.93326
-0.687413 -0.745943 1.86126
-1.48687 -2.99348 4.96595
2.81139 -2.2526 -2.66439
-0.538221 1.56748 -2.4062
2.4402 -0.377283 -3.8238
-2.37029 0.725744 -3.22235
-1.02007 1.60075 -3.28419
0.60442 -0.445853 -7.66607
-1.34334 -4.31639 -6.54128
3.34992 -0.693501 -7.07989
-4.16565 1.01918 -2.93445
-0.229955 1.44142 -1.80903
0.098675 3.97173 2.47477
0.585987 2.6823 2.2271
5.41487 -0.634341 10.8056
2.84158 3.19519 3.61008
-3.76731 3.09251 -2.45963
0.650999 0.945266 2.88838
-0.131493 0.732774 2.40615
-2.23694 0.110447 1.98206
1.10536 -1.50347 4.5128
1.79409 2.17201 3.21784
5.35895 6.90681 2.31662
-1.64022 -3.4261 -3.87997
-1.91224 -1.43021 -1.39745
-0.0590064 -0.840853 -5.84446
0.483602 -6.30868 -2.8213
5.41384 -7.10613 -4.30864
-1.1918 -0.991921 -5.97985
-1.06174 -1.98761 -5.41623
5.29354 0.98647 -11.3775
6.4381 -2.27215 -7.03406
0.222501 -2.67156 -7.43959
-0.375378 -1.21204 -2.85844
4.2073 0.75055 3.81767
-2.29865 1.21221 4.94354
7.138 -2.91975 4.48511
3.817 -8.58986 5.94882
-0.079059 -3.28018 3.55752
-1.6937 -1.0867 2.65645
1.07408 -0.375364 2.0548
-1.38836 2.19926 -3.503
1.68437 1.62388 -1.15524
2.59264 -3.35965 -2.60374
1.28479 -2.38111 -3.63868
0.0825468 1.47824 4.45852
0.504678 -0.274313 1.39107
-1.9709 -1.924 -2.44852
-1.1163 -0.287514 -2.98832
-2.74715 1.13657 -2.24576
-0.0447944 -0.723323 -2.92141
