2.95797 0.221674 -3.54216
1.02623 -2.74125 -3.25307
0.237535 -4.43128 -3.46995
-0.507923 -5.49724 4.15835
-0.766804 -2.8443 2.02913
-2.43854 2.72532 5.87024
1.12684 -0.949508 4.99534
0.426597 3.43034 1.60202
0.14378 0.166832 -0.685843
-2.36954 -2.08627 -5.50977
-0.233205 0.325932 -6.9641
-2.44063 3.89799 -8.92303
3.41209 -1.94687 -3.1953
2.4207 0.158445 -6.94671
-1.92793 -1.50477 -2.54039
5.35566 2.35189 -3.34961
2.51109 -2.14028 -5.63168
0.883104 1.97193 4.14714
2.49003 -1.4208 3.1435
-1.90354 2.31017 -3.12848
-5.63587 -3.53776 -2.57333
-1.37626 -1.26221 3.73985
-1.64769 -0.659281 7.9217
1.22229 -0.332898 1.89232
-4.85628 3.18385 2.64744
-1.95017 0.201273 1.27882
5.47188 2.43413 -3.71965
1.82564 -1.40965 -3.46426
0.804501 -1.59089 -4.46027
1.07821 -6.11835 -6.01996
-2.32534 -5.67121 -3.96508
-3.28184 -2.86915 -2.01159
2.60199 -1.70151 -0.997043
-2.07136 1.2348 -2.71844
0.740766 -4.2466 -9.83405
4.51361 0.336543 -8.22294
-0.503076 8.47914 -6.22857
-3.76998 -6.08898 -8.04605
0.166611 -1.60049 -1.47369
-1.86953 -0.991074 -1.89703
3.92298 -4.78228 -1.56816
0.808843 2.91069 -3.82556
-0.715438 -1.33007 -1.5085
1.36546 -3.69582 -6.42165
0.183743 1.56837 -2.16847
1.73612 -2.54528 -4.37534
9.40769 3.57865 -6.71572
-0.409613 4.30534 1.67825
0.183336 0.958834 2.53058
-0.482557 7.64162 4.26709
-1.16106 6.90767 -9.91248
-2.53761 6.96836 -8.00523
-1.00245 0.232717 -2.25203
-3.94676 -0.701912 1.35239
-0.021775 2.74147 5.32669
-1.06172 -0.588566 3.65868
-1.97347 4.02227 -6.35885
0.597237 0.384054 -0.481916
-0.309708 3.33307 4.12239
-0.417388 4.18762 2.9358
-1.94694 -2.43962 5.67962
-0.92321 1.10948 2.91464
3.91785 -0.550867 3.27307
-2.3024 -0.269994 1.77816
-0.646226 -2.64604 -4.00053
1.12265 1.53492 -3.66862
-1.69438 3.30118 2.12052
1.92548 -1.2568 4.56821
-3.92768 1.95855 3.68089
-0.910202 -3.14395 -4.61012
-0.700991 -1.81502 -3.73567
2.07854 2.20412 -3.93817
-3.33469 0.0950617 -4.1336
-1.57459 -1.46206 -1.95323
-3.37091 -2.5062 3.49824
-0.00360709 0.800444 2.14384
2.09742 1.40674 3.16506
2.81729 2.97823 5.6735
1.98738 -3.96416 2.53309
1.66171 0.736169 3.56335
-2.96216 0.126336 4.99855
2.1824 -1.77591 4.81146
-1.62447 2.731 1.89688
1.57462 -0.779338 2.4034
0.0214206 1.46799 4.76888
-1.07264 0.153001 2.45806
0.971888 -0.396204 4.34565
2.48336 -0.887069 5.19949
-1.03646 0.0585018 3.06487
-0.480094 -1.62885 4.40433
0.819215 -2.52734 3.14264
2.72339 -0.243906 2.99078
-2.44279 3.40971 -2.89687
-2.06908 5.25727 -6.37038
1.48089 4.17113 -8.84098
-0.316411 3.80108 -3.71588
3.37583 -0.713258 5.13909
0.688972 -0.0243219 1.76723
1.34808 1.76476 2.19283
-0.434044 -3.2764 -2.10709
0.479155 -0.402498 -2.82062
-0.739163 -1.92829 -5.579
2.55256 0.531905 -2.11766
0.86894 1.49044 2.64836
0.992988 2.10581 10.613
-1.43996 3.09417 7.36358
0.542305 -1.7981 5.56134
-1.52825 4.3815 -4.64815
-3.48542 4.41395 -6.3186
1.29804 2.72532 -3.11347
2.61196 -1.39206 2.79207
1.18922 -2.25535 -4.10044
-3.61781 -1.55778 -5.03635
2.76792 3.20391 -3.98638
-2.29002 1.95486 -3.18222
3.22359 0.369816 -1.18951
-2.83329 0.569156 1.7455
0.270735 0.961013 4.80736
0.37442 1.65981 2.42597
3.05305 -0.121185 3.81586
-1.34619 -0.139463 -1.47325
-1.07933 2.1773 -5.0776
-1.95927 6.0045 -4.12359
0.0313232 -0.912974 -1.37993
-4.08928 0.75758 -5.45907
-0.30683 0.548879 -5.4834
0.512693 -0.701348 2.49474
-5.2422 -4.86302 4.68441
-0.842764 1.47199 6.46287
0.872822 1.38744 5.21891
-2.62259 -0.540445 0.411582
-1.70415 -3.36934 -6.54752
1.19638 3.16236 -2.11204
-0.878701 -0.15208 -3.78734
3.12564 -1.89115 -3.10345
1.38202 4.32248 -4.18931
-2.84979 -0.571203 -2.61316
-5.98469 0.07472 -7.56473
-0.696831 -0.812795 -3.62035
0.997345 -0.748801 2.84195
1.27216 2.90877 5.42184
0.0850481 -0.152467 -2.05014
2.06388 -1.03498 5.00941
2.6081 1.89227 -0.971592
-1.00083 -3.38701 6.04344
-0.452086 0.0216589 1.8262
-0.027764 0.903816 -3.62719
-5.56257 0.414961 -7.57159
0.480995 -3.95794 -4.06476
-1.21063 1.37632 -5.35335
-0.989125 0.120923 3.34661
0.0296515 0.0828591 3.29193
0.817471 -2.89762 3.3064
0.899092 1.0634 -0.896672
-0.981749 0.602756 2.68377
2.66539 1.11442 1.58041
4.36688 -5.07552 6.62941
3.06709 -3.40016 4.35171
-1.67011 0.327516 -2.91478
-0.353867 -1.05977 -4.30365
-5.2546 -1.16744 -5.50197
-3.89309 2.24543 -9.21521
-0.602222 3.07749 -6.45718
-1.42051 -4.88736 5.96182
-1.99962 -0.821375 2.46136
-1.38447 2.78811 4.51313
-0.356157 -1.19635 4.71251
0.383982 -0.196748 3.75286
1.4617 6.08652 -4.87776
-1.89916 3.27429 3.60454
-1.55486 1.56736 5.08887
2.82911 2.93244 3.33177
0.656011 1.83545 1.10744
-0.545829 -1.95503 2.33235
1.8795 -0.220993 -1.88166
0.694334 1.64931 2.47077
0.165876 -1.92245 4.8383
0.908631 -2.64499 -1.52329
3.79868 -3.63899 -8.24169
-2.72241 0.553817 -2.76871
-1.53839 1.26974 -1.51429
2.04408 -1.10329 -2.34675
-3.81781 0.3767 -5.14676
3.52999 -0.384313 -3.93608
3.77261 -0.956612 1.9314
-0.200594 2.09648 3.88823
-0.127523 -3.44078 4.42008
0.545614 0.910968 2.63251
-0.545911 -3.44822 3.80348
-2.24172 4.7388 4.35683
1.43203 -2.28425 1.66961
3.76535 -2.41257 5.14657
3.3068 -0.9124 3.53234
-2.48723 -0.0462524 -3.59723
-2.3804 1.58482 -5.32456
3.26479 3.10952 -2.98763
-0.0194335 1.51886 -3.32328
0.773075 -2.10855 -3.5754
-2.48255 3.93599 -5.61487
2.90887 1.5392 -3.10407
-0.991397 0.903527 -2.68386
-0.971043 4.95424 -8.11388
2.98538 -0.146704 6.94756
-1.38518 4.0745 5.15257
2.11228 0.717237 -0.401929
-1.91654 0.130436 2.66788
4.50987 2.60902 5.23329
-1.86819 1.69723 3.22269
-0.870905 3.87282 7.56243
-1.26053 -0.416711 4.72301
0.451909 -2.75412 -2.49281
0.842391 -1.30704 -3.34982
0.915918 4.24432 -4.15569
2.21691 -1.88738 -3.01453
2.39078 -0.601495 -2.11011
-1.13981 0.406854 3.02469
-3.25195 -1.26679 2.94303
-0.225462 -1.27962 3.44101
1.70036 -0.471029 4.10847
-5.17411 0.644241 -2.9546
-2.30685 0.172468 -1.76334
-4.73599 -1.64342 -2.48422
-0.0535267 0.435372 -1.62258
-6.22834 -0.0278231 -6.02516
1.52657 0.867728 -1.80898
3.32038 -0.537839 -4.25169
-3.24695 -0.837003 -1.57421
-2.58254 -3.62106 3.81666
-6.41335 -0.977287 4.46047
-0.785911 0.829235 -2.46083
1.04959 -0.919856 -4.70859
-1.58306 1.11065 -4.38749
1.12776 -0.84287 -1.07352
1.66222 -0.355798 -4.61826
1.35884 -2.06876 -2.75307
2.30308 2.02549 3.43185
-1.40472 1.52986 6.11635
0.158019 2.19022 3.3053
2.06491 -4.31519 -2.64126
1.07291 -6.68303 10.2989
-1.55024 -4.03746 8.41308
-0.657258 -0.587292 3.23396
-1.08147 -0.924188 -3.74794
-2.58785 -2.0321 -4.07537
-0.337485 -1.38609 4.80051
0.199943 -1.44877 4.0035
-1.46448 -0.970965 6.14099
1.83922 3.59811 5.91865
-0.542039 -0.598066 3.73842
-0.126292 -5.18112 5.54105
-1.01409 0.676638 2.33151
-2.15476 -2.88231 -3.21184
-2.57411 -1.39681 -2.83106
-1.12728 -0.473115 -0.430086
-0.160557 -5.3385 5.48628
2.38574 3.61984 6.21244
0.325452 3.04576 4.74205
-2.66135 -1.20707 4.94499
1.08289 1.56642 -3.12345
2.45643 -0.689746 -3.79425
-0.362843 1.15823 4.79789
-1.88466 -0.442681 -3.54395
4.50262 -0.258647 -1.80139
2.19917 4.61792 -4.94047
-0.238353 -3.47194 -6.0443
2.23805 -1.84374 -10.3733
1.66992 -2.12196 -6.45024
-3.0383 -3.69846 -1.92102
-3.27742 -3.75375 -3.81784
-2.12837 1.70493 -3.1885
-1.922 0.939628 -5.33721
0.233837 -0.34198 -2.65573
-0.342314 1.54889 -3.76743
-2.71314 2.77242 -2.25036
-4.46407 -3.49113 -7.80935
-4.46745 3.14521 -3.38994
3.00645 0.29337 -2.86613
-0.482621 0.53724 2.08811
-1.85739 -0.0365995 2.96497
1.32363 -1.02442 -2.59741
1.44235 -4.43887 -6.94632
-0.273545 -1.0762 -1.06309
-2.68006 -1.84019 -3.48501
-2.62675 -0.426601 -5.18481
0.731997 -2.71112 -1.44722
-2.37516 0.379128 -1.00812
-1.93794 -2.03559 -3.9401
1.08433 2.09244 -3.4741
3.81673 3.57815 -5.68011
-0.580506 -1.22595 -0.902607
-4.09175 1.86008 -4.6977
-0.363967 1.75946 1.11233
5.47036 -0.286397 2.96281
1.90081 -2.5979 0.834287
1.73824 -0.00327456 2.75905
0.456203 -1.6297 -5.01268
0.987421 -0.476113 -2.72107
-5.37808 0.0117281 -1.64369
-2.06059 -0.657227 -4.27537
-1.03856 -4.15752 -6.35942
1.47337 -3.33678 -2.21721
-0.0968491 0.268643 -2.67176
1.54183 0.357765 2.28838
0.289955 -2.27748 0.732249
-1.09374 -1.18486 4.20116
2.02367 2.55354 3.51759
-2.54324 -3.03483 5.60542
0.782041 -0.991377 6.18599
0.0076068 -0.723168 -1.80425
-2.45781 -0.379807 -4.90732
2.65301 0.345131 -2.51292
4.88973 0.235472 5.91495
-5.87253 -1.17529 2.94072
1.38209 3.70869 -1.19723
4.51156 -0.49788 5.44759
1.88521 -2.8145 -4.69206
-0.71902 2.03268 -2.9137
-2.24039 -3.58655 -5.99127
-2.14158 -6.21491 -5.34012
-0.317186 -4.94945 -6.83813
1.37241 -6.18918 -2.89362
-0.55139 -0.483395 -3.21876
0.0226815 -4.46334 1.77898
4.30852 0.347506 3.34166
-0.0364862 -0.72822 -2.20046
-2.58753 -0.11403 -2.42101
-0.0376141 2.10313 3.38146
-1.3768 -1.64798 -2.38515
0.191021 1.4751 -3.36223
4.18106 0.483723 -0.617852
-0.662192 -0.152291 -3.66693
2.44758 2.70607 -2.38714
-0.2125 1.57147 3.02867
5.17189 -0.66423 9.83895
-3.24374 3.58297 4.3368
-6.14849 -2.1623 4.04743
-0.622698 4.10871 -3.09021
0.58008 0.756519 -2.59909
-3.2045 0.948102 -1.51107
0.42204 -0.902185 2.41705
-0.777544 0.122946 -1.06416
-0.430423 -0.0239035 6.1426
0.00521817 1.44808 4.58026
0.0544129 0.207812 -0.552317
0.477813 1.15707 2.86711
1.11641 -1.00825 2.40407
-3.08822 -0.961899 5.08813
4.27511 1.55425 -3.34799
1.71832 -3.5721 2.85954
-3.12783 -1.91587 3.55617
2.17656 -1.68249 -0.794864
-1.69488 -1.58143 3.34779
3.08968 -0.85288 -4.38012
-1.94148 0.456188 -2.52772
-0.395264 -1.10754 -2.50271
1.03707 -0.288705 -1.6524
0.185855 3.0277 -2.10299
0.837997 0.685031 -1.78389
2.65698 -4.05292 -2.5853
1.07709 2.10801 -3.17556
-4.74249 -2.07912 -6.53212
-1.54231 -4.9393 -4.60565
-4.03889 -1.92638 -6.71883
-0.313304 -1.65705 -2.86034
-0.214873 -0.926475 1.19724
-1.30588 -0.15901 -2.48256
7.4718 -0.66006 2.99654
0.223071 1.38076 6.19823
-0.848508 0.543115 2.20462
-2.36025 0.00537728 4.52744
-0.925277 4.17875 1.93854
1.95709 -2.26981 -4.70751
-0.0652265 -4.52331 -8.81158
0.153576 -3.0967 3.13283
-2.18096 1.52694 -3.01517
-1.10315 2.11282 -4.00781
0.531943 -2.08399 -1.65328
4.0299 -2.55664 3.72979
1.82898 -0.941105 3.89106
-0.544331 -1.54317 -4.79453
-0.423852 -0.320082 -0.510715
0.31805 -0.517376 4.03919
4.3617 4.80805 4.12997
1.06976 -3.01159 4.87137
0.807376 -2.2199 -4.76129
3.24569 -2.41593 -2.57911
-2.41003 0.299012 -1.78259
-0.242074 -2.03687 -2.80862
-2.01196 -0.817275 -3.14646
-4.02356 4.14479 -3.61684
-0.526254 -1.00925 1.81666
0.463832 -0.449995 2.0336
-0.293272 -5.63261 8.44598
1.14123 1.12686 4.01836
1.12399 1.30119 3.35254
0.335324 -0.772018 6.0317
-0.29768 2.72398 -1.37447
-6.64184 1.36479 -4.56833
-3.93195 2.65828 -1.8767
1.41998 -1.44397 -5.70691
-0.504418 1.10899 4.13432
0.416984 -2.50336 4.29712
1.79508 -0.378592 2.80864
-0.788269 0.213034 3.09375
1.99458 -0.274504 -1.62142
3.16345 -0.844969 -4.25539
-1.67884 0.165121 -4.85133
-2.26923 4.60832 -5.65669
-3.59011 0.701572 -5.988
-6.72311 -0.024283 -8.17381
0.861265 1.88147 2.79331
-0.679624 2.79687 3.43805
0.396963 1.75417 2.59587
-5.44924 2.97694 6.88023
0.664164 0.700107 -3.18309
-0.359723 -1.17827 -4.95175
-2.07171 0.955134 -4.16732
0.545293 1.40862 -5.35807
-3.05452 -0.63778 -7.86814
-3.57794 1.0584 1.3903
2.49136 1.79287 -2.57434
0.802632 2.36236 -1.69136
0.926605 1.12063 4.00777
-2.10896 3.60638 -2.24713
-2.1251 3.29966 -2.80434
-4.09998 -1.16882 -3.12662
2.23822 2.89203 -3.9056
-1.71305 -2.07735 -0.798102
-2.58846 -3.81798 4.25245
-1.62346 -1.53701 4.7322
3.44905 0.278976 3.41779
-1.82201 -0.546107 3.94351
-2.7379 -1.07302 6.54933
4.05734 -3.71725 5.72885
-1.96775 -1.06049 2.12386
-2.18507 0.162471 2.03226
0.345058 -0.515322 3.02589
-1.74675 0.351836 4.33981
-1.76172 -0.989033 1.72488
3.00126 2.31924 -6.01364
-1.54453 -2.52615 -4.07076
0.273858 -1.87107 -2.69604
-1.77512 3.8548 -8.00393
1.40294 0.381217 1.01781
4.47161 -1.39631 -4.3976
2.99145 0.0316145 -2.51092
-3.88727 -5.64713 -6.02105
2.84316 2.27894 4.52806
0.909179 -3.35695 -1.67964
0.662069 2.8839 -2.01762
4.95899 4.82151 -2.42879
0.81546 -0.194914 1.4793
2.51264 3.51778 2.79543
-0.747645 0.7751 1.73821
4.90318 3.4608 -5.13633
-1.86384 0.267948 -3.04179
-0.387993 2.73364 -2.39008
2.72343 0.558904 -7.12529
-0.358442 -0.680581 -1.29112
-0.709058 -0.278024 -0.967537
-0.545845 -0.224918 -3.78547
-4.93641 0.766994 2.2526
2.79281 0.728741 0.424412
1.01895 2.8397 3.3904
0.686967 -0.71233 1.97505
1.99558 -0.739762 -2.18703
-0.636092 -4.11821 3.92859
-3.18243 5.11389 3.3508
-5.56254 3.05398 5.93318
-2.18617 -0.596392 -4.15454
0.381916 -2.52276 -3.90246
-5.00339 0.0475878 -3.36134
-0.395404 0.401591 -2.14946
0.324075 1.32669 1.63513
-4.59222 3.1482 -6.98194
-2.68272 -2.94065 -6.43182
-0.314557 -2.37247 1.94224
-2.62502 -2.23414 -3.18656
2.86387 1.41835 -2.71037
0.256615 -0.103801 -2.1288
-2.07777 1.45428 -5.55155
-1.41161 2.16352 2.23172
0.296683 -0.152737 1.84115
1.40639 1.35062 3.62245
3.43692 1.03123 4.92187
0.327355 -0.339851 6.5704
1.51648 0.242688 2.77905
-1.98698 -0.282213 5.21461
-2.48849 -3.46905 3.48268
3.22696 -3.06152 4.65426
0.521555 0.258085 2.07668
0.0232839 -3.86213 4.08
-2.41852 4.46835 4.57431
-2.50835 -1.20281 4.39288
1.18289 -0.240232 1.88639
-0.0889325 5.75235 -2.83283
3.59838 1.36701 -2.74988
4.00419 -4.54502 -4.35032
-2.19671 -8.18559 -2.89195
-1.99797 1.64969 -3.63615
0.551473 2.07512 -4.64457
0.313109 0.480076 -1.05119
0.681972 3.75058 2.68713
0.118135 0.00864918 7.11579
2.05132 -2.62951 3.62056
3.85881 -1.75413 -6.22703
2.30261 -0.0107687 -4.74347
6.25788 1.32123 -3.49487
1.22152 1.87161 -5.86192
-2.4904 2.76017 -3.81709
1.72668 -0.13223 -4.37192
-0.526526 0.064107 -0.260312
4.54934 -2.74966 -7.53006
5.13383 -1.43659 -5.36902
2.21204 -2.76558 -3.49412
2.28992 -3.19279 3.67951
-0.625151 2.13473 -3.07281
-2.85502 -3.89074 -5.22537
2.89546 -0.134321 -1.32717
-2.95398 0.886757 2.68472
-0.235251 -1.30986 3.50232
3.2685 0.4279 2.51464
-0.00502006 -4.4682 -3.25294
1.64565 1.38896 -3.83537
-0.464093 -3.42959 2.54902
-0.675442 1.36013 -5.3044
-2.42724 -3.97077 -5.81982
3.75598 2.43486 3.26854
0.237911 3.16787 2.33651
1.99902 -0.230885 -1.7265
-0.263701 0.354188 1.30266
-2.43152 0.954409 8.15663
-4.30455 -2.83587 5.52537
1.75079 1.35014 4.20539
0.604073 -0.132354 2.16981
0.304254 3.03633 5.74278
-0.359044 0.920513 -6.68335
1.25644 1.1514 0.739415
0.224397 -5.83144 5.92536
0.803045 -4.13941 2.59605
-6.04576 -1.25124 4.97291
-3.42768 0.561809 5.49709
1.82974 0.78187 5.2345
0.352772 0.359287 2.51222
-0.51411 -2.98212 1.50538
0.377408 3.8747 -3.55157
-2.58664 2.05171 2.96661
1.63668 -0.881725 1.78147
-1.02185 -1.49506 -3.79588
-0.0635505 3.52695 -3.19071
0.116714 0.416519 -3.15814
-4.62279 0.910374 -2.9011
-0.905164 -0.374246 -0.882651
2.33566 -1.06471 -1.53839
3.78453 0.894432 5.0744
0.504937 -0.142295 -2.25242
-2.16289 -0.245859 -5.25961
-0.350223 0.300351 -2.97433
-0.636407 -2.06954 -4.20871
2.34381 1.90753 1.74927
-1.77861 0.351954 2.79582
4.41674 -0.306955 3.13299
1.42454 -0.623383 1.3864
0.0246639 -2.42905 3.85574
0.0861286 -1.31263 -1.99787
-3.07409 1.01534 3.92677
0.837385 -0.887115 4.35772
3.79789 -0.148454 5.58034
2.11083 0.116932 3.46314
-0.0348993 -3.9891 2.34933
-0.965788 -2.23367 2.28103
-0.326473 -0.1131 3.65831
2.22365 -2.44443 -3.90207
2.39759 -0.639738 -4.10465
0.502877 -3.03741 -2.17547
7.67885 2.70843 -2.72918
1.61974 -1.40977 4.54229
-2.26331 0.911264 -2.71497
-1.98554 1.94964 -3.934
-4.18495 3.37441 -6.66404
0.647507 -0.670953 -1.23176
2.46848 -1.51233 -3.20436
3.14611 4.05205 -5.29195
-2.42836 0.0033837 2.05773
-0.828906 2.45955 4.20526
3.43984 0.158857 5.0153
-0.557472 -1.28529 3.12745
2.09537 0.860017 5.67647
1.21921 -3.8365 2.72383
1.91197 3.11792 3.0144
1.27223 6.47039 1.8563
-0.793835 -2.11145 -3.04078
2.77253 0.0987508 -2.69528
1.04368 -1.80143 1.22635
0.0749209 -0.33187 0.752729
1.3619 2.94088 -6.07424
0.635622 1.08676 1.46435
-1.40742 0.227148 3.00296
-0.434366 0.737064 5.50128
0.94125 3.3557 4.30487
-0.04075 -2.46121 3.81413
0.623808 0.309361 2.15696
-3.25329 -1.28282 2.73228
2.65289 0.974302 1.73733
-2.95184 0.965314 -5.11708
0.416843 1.28092 -3.83171
-1.78611 -1.75214 -2.62949
-1.25062 4.38652 -3.08171
-2.73624 1.97439 -5.73637
-3.70461 1.0806 -4.64883
-0.893306 -0.94709 -3.81759
-0.822076 -0.351771 3.63957
0.297838 2.35937 0.622231
2.83808 0.192925 4.78942
-1.42521 -3.86476 9.80083
3.11431 -2.53501 6.06816
-3.3378 -7.44641 -2.93633
-0.054486 0.514598 3.49099
0.834627 -1.53896 1.56168
-1.7066 2.43685 4.90847
-0.673232 -1.91947 2.44326
1.82588 3.46562 2.67308
-3.16571 -0.59974 3.12916
0.232953 -0.506316 0.584965
-2.92869 2.3146 7.0194
0.793825 -4.44408 -6.974
2.84663 1.65906 -3.66969
1.43954 -2.20217 -4.61354
0.282168 0.231127 -3.67313
1.28082 -3.2208 1.26846
-2.26851 0.868847 3.31849
1.02398 1.88594 -2.82837
-0.978932 3.70639 -5.09871
0.335282 0.110863 -3.88545
-1.29569 0.563812 -4.54955
0.469745 -1.12373 -2.83011
-9.50523 -0.914669 -8.00972
3.09244 -4.90598 -2.02442
-1.18946 2.66106 -7.67938
-0.635286 0.627033 3.69878
-1.67642 -0.254642 -1.10486
3.2439 -0.531518 0.49895
-1.51724 -1.87294 8.16702
4.41747 -2.79428 -4.30204
0.769169 3.92323 -3.92169
0.726651 1.84551 -2.32782
1.50436 0.967172 -5.05357
2.42422 3.12933 -4.03214
-0.910823 -1.82564 5.04333
3.35855 1.40531 1.58242
-0.419603 1.9996 3.38271
1.86872 -5.46117 3.85169
-5.65002 0.187469 3.33627
0.0078952 0.77827 -2.98293
-1.64406 -1.27947 -3.29748
1.69755 -2.28334 -6.09624
1.60766 -0.363027 -5.17996
4.10141 0.0735697 -2.06469
-0.656062 0.966532 2.77831
-0.113968 -0.87768 4.64226
-0.537845 5.97713 3.87032
1.80134 -3.35991 7.4047
-3.0387 1.29069 -2.27079
-1.81567 5.9286 -5.21246
0.155362 0.232592 -3.73084
0.74131 -0.710121 -4.15259
-0.850652 -2.13266 3.71658
0.48555 -1.68597 -2.5423
1.45897 -0.926487 -1.92951
0.607721 -1.93352 -5.57908
1.43451 2.02317 -3.41192
5.2655 -1.57099 -6.23237
2.78535 -2.19102 -5.04776
-2.24362 3.27662 -2.54694
-5.20901 4.54691 2.81331
1.30524 0.527746 9.06964
0.860117 -1.54441 5.34882
-0.305526 1.67069 -8.81646
0.544775 0.00224181 -1.70677
-0.618111 3.49019 -4.33551
0.769709 0.0740002 -1.89326
-3.07561 3.73098 -3.54274
0.0789466 -0.99354 -2.14513
0.108001 -1.31465 -1.38503
-1.60694 -1.41156 7.29701
3.59563 -9.15819 7.67403
-1.58573 -2.4375 3.8152
-0.18594 2.10116 2.53435
-0.398808 0.553016 6.03045
-1.23372 -2.31304 -2.13982
2.273 -4.469 -2.89602
-1.81632 -1.28538 -4.55219
1.54787 0.319135 -2.7484
-1.73649 1.14686 -5.79496
-0.378346 0.362718 -3.14523
-0.348252 -1.31677 4.80089
-3.0783 -1.70861 -2.52935
1.21653 -1.22456 0.960922
1.53484 0.817401 2.00683
2.0657 5.09734 1.94445
-0.415592 0.378387 4.45372
1.98571 -0.548263 2.00913
-0.250925 1.22383 -3.6415
1.52889 -0.379342 -2.11253
0.105112 0.711202 2.91588
-1.31133 0.398587 -1.24217
0.44253 -0.829304 4.49184
-3.19717 -5.34067 5.01702
2.47386 -2.00217 10.0881
2.82557 7.55147 8.28483
-7.63081 10.7031 6.32366
1.00479 8.87241 3.82015
1.45132 -0.216473 7.2711
0.768413 -2.10989 -2.36812
-1.55039 -0.405586 -3.56802
0.993658 0.940685 -2.02512
3.9455 3.1658 -3.2188
-0.062044 -0.329901 -0.697904
4.71648 0.977781 -2.8862
-2.9519 2.97606 -6.04457
-1.83866 -2.87761 -8.97533
3.17976 -1.48625 -4.25919
-0.305184 4.25946 1.03228
-1.27388 -3.36542 1.90253
0.464301 -2.8697 6.14437
0.559195 1.48112 6.21238
-2.02409 -2.4964 4.47421
-1.2676 -0.118731 2.09334
-2.77164 2.95653 0.744613
-1.52838 2.39136 5.71626
-1.51692 -1.191 3.94931
-1.19012 2.43472 2.04411
1.02003 0.397426 -5.10195
-0.842589 -0.723945 -4.00556
-4.14859 -4.97283 2.36998
-0.687006 1.15018 -1.40532
-5.40614 2.50501 4.25327
-1.25133 0.656811 -6.36899
1.91338 -2.71353 -3.64937
5.01639 -2.72761 -6.07579
0.243336 4.01815 -5.73618
0.132546 4.07344 -3.41815
0.393986 1.62027 -2.05019
3.03948 -1.53379 -2.80505
0.460317 0.379761 -4.9656
-0.86121 1.26162 -2.45426
-0.959222 -6.83805 1.53394
-3.11499 1.58935 -2.77037
0.711722 2.21912 -4.36896
-1.80469 -2.91793 -3.13189
1.30267 -0.793075 -1.81493
-0.947683 2.0874 -2.8018
-1.83749 -0.579704 -2.86082
-3.44417 2.28124 -1.9278
1.86934 -0.0233115 -3.35604
1.03105 -0.606986 -9.68759
0.884265 2.16806 -3.40274
-0.737366 -2.66495 3.58452
1.92996 0.967162 4.2664
-4.48077 2.10607 -1.35
-3.59424 2.36056 3.59216
-0.784791 -2.01283 3.73871
-0.830472 1.82663 -1.13059
-4.6387 -0.755196 -3.401
-0.514856 2.55254 -1.77124
3.25999 3.90304 -4.47408
-1.89269 -1.93029 4.81337
-1.09032 0.167837 -1.21812
2.69069 4.28899 -3.7843
2.34417 2.08199 4.6508
-5.04476 -3.40769 4.29969
2.13035 -0.606497 3.01958
4.6274 0.776711 3.5513
-2.48259 0.223093 2.58811
-0.970593 1.33895 2.74894
-3.77681 -3.11394 -2.52845
4.67202 0.64048 -6.24456
1.22409 3.01907 -4.91547
1.01428 0.862939 -2.34147
0.477231 0.611437 -2.65863
1.26462 -3.39367 2.60271
2.0783 2.89964 7.56297
3.57056 0.547187 3.98689
-0.26031 1.53685 3.04692
-0.639771 -3.06914 4.70523
-0.145629 -1.98418 3.23063
-1.5934 4.70546 5.98241
-3.80405 -3.99594 -7.48769
-1.81999 -3.21516 -3.60067
2.18777 0.740983 -3.91042
3.45668 -0.0752499 -3.58497
-0.217844 -0.866014 -3.87151
-0.0672943 -0.439026 5.06284
-0.560115 1.64688 2.22457
-1.17111 -0.715043 6.00551
-0.214765 1.45808 -5.3099
-0.83379 0.688274 0.973467
0.49989 0.834443 -1.15667
-0.46499 0.0444669 0.60058
0.423622 2.70039 -2.84381
0.707381 -0.58365 -3.3756
1.0065 0.828593 -2.24096
0.697813 1.88501 -4.27396
-3.7626 1.07418 -5.22781
3.93827 -0.862374 -1.96775
2.53161 -1.89114 -2.06941
2.06879 -0.626358 -7.91547
3.33748 -0.909833 -3.7036
0.0795531 -0.808072 2.09927
1.19621 -0.751837 4.34046
-3.6794 2.27898 6.75299
-1.26927 2.19301 6.2299
-2.81415 -0.0193185 -2.62308
-0.394513 0.90956 1.64523
1.36342 -0.631432 -4.9783
2.52774 -2.30306 -1.80878
-2.48233 -0.243114 -4.73813
1.62605 3.92244 -2.12838
1.03142 -0.134452 4.55478
3.7189 0.361972 1.99786
-0.721641 -0.87713 2.90679
1.82339 -0.298153 1.13191
-0.707025 1.09119 -3.28863
-2.10278 -3.91681 -4.87493
-1.67528 0.399767 -0.86009
1.33422 -2.81455 1.30946
-0.517092 2.57921 3.68504
1.38407 -0.705655 -3.37099
0.749523 2.61386 -2.96172
5.08696 1.28265 -5.4091
2.28604 -0.743775 -1.73516
-3.67893 -1.30345 -6.99476
-0.699554 -1.86164 -5.77473
1.23081 -0.892105 4.74572
0.154076 2.5511 11.5257
-1.53508 1.24294 1.30234
-2.08683 0.9777 -6.39023
2.98083 1.2568 0.991527
-0.989513 -2.18457 2.98712
3.19474 2.3835 8.24009
-0.487096 -0.444587 1.18679
-0.277602 4.19753 5.71382
-0.672512 -0.0695443 -0.36033
1.55406 5.04806 2.80151
4.04918 2.75828 2.65972
-3.75843 1.41455 6.42238
2.88814 -0.287931 -4.16933
-2.16355 -1.92349 -4.05896
-4.28029 0.745533 -3.03573
1.62317 -2.05085 -1.48632
0.890068 -3.17283 -6.37024
-0.709208 2.09263 -8.71905
2.62749 1.97342 -4.72701
-1.66733 -2.45293 -3.31545
-3.69144 0.585567 4.65516
1.24461 0.672231 2.87833
-2.06788 0.422211 3.00155
0.860906 -0.823159 2.57975
-0.9072 2.76707 0.6694
0.355336 -0.0809792 4.82809
-0.471689 -3.20298 5.21476
3.36542 -6.48261 5.16713
3.65509 -1.48026 -7.23836
5.12349 -0.721788 4.25292
1.44367 -1.4748 -1.98898
-0.856242 -0.831524 -1.54942
-0.850192 0.698525 3.08586
0.192753 -1.29326 4.10774
-1.89542 -0.870802 -0.818409
-1.39057 0.650534 -3.90928
1.63182 -0.543849 -4.74507
3.30388 -5.68749 -1.82387
-3.3354 -3.5481 -3.72177
-1.44191 -5.1312 -3.98407
2.42192 -2.04954 -2.76184
1.18734 -0.134563 -5.57974
-1.02978 -1.01634 -1.6835
-2.67992 -3.98189 2.89185
-3.31422 4.62668 4.41749
-1.90389 1.81212 1.80114
2.85322 1.30668 3.30348
-0.490545 0.0934047 3.35945
3.45152 -2.88311 3.24634
1.23296 -0.690051 3.95434
2.10513 0.442095 1.84292
0.52531 1.00858 0.696708
-1.45958 -0.342823 1.73806
2.05522 -1.36931 -3.38454
1.65444 2.7807 -3.11611
-1.29173 -0.715691 -6.6517
-4.76197 -0.79359 -4.37421
-3.28906 7.26334 0.727187
-0.640856 -0.454371 3.23016
3.30599 1.18802 3.69284
1.87633 1.03137 2.91634
0.0567475 -1.77475 -5.63756
0.40252 1.6701 -4.09772
-6.51578 -0.345491 4.92784
-6.33181 -0.577764 3.15809
-2.35508 -0.691918 4.23281
-0.444598 3.23208 2.77018
1.31362 -0.24461 -2.63399
-0.112215 0.543189 2.07633
-0.0749716 0.837509 1.77645
-7.33097 2.91919 4.60058
-0.939217 6.3293 -5.02638
-0.814856 -1.78858 1.60689
5.14087 -0.508055 3.23342
0.893135 1.15663 -1.1025
0.41377 -6.59207 3.75672
-0.922951 -1.74718 -1.71402
1.87839 4.04084 -3.14617
1.84298 0.59056 -1.88426
-0.00344932 1.4987 -1.81319
1.29945 -0.967805 6.15152
2.96988 0.333655 5.10054
-0.3359 -3.66571 -2.33869
5.98048 6.85593 1.87357
-0.485544 -5.01764 1.94655
-2.70065 -8.03596 11.0269
1.71789 -1.55424 1.91669
2.13673 -3.84433 8.79115
-3.39706 0.651932 1.7781
-0.604091 -3.72888 2.22045
1.68651 -3.75713 -5.33858
3.26301 -3.10756 -3.45475
-1.20587 -1.25222 -5.92135
0.0944699 -1.48323 -2.33716
1.33364 -4.10514 -2.37859
-1.63923 -0.421593 1.86521
0.698643 -3.06309 4.04696
-2.38458 -4.41676 5.07438
0.623246 1.53226 4.54915
2.22779 -0.00091224 1.35098
1.05459 -1.12692 2.55174
2.09055 -1.86161 -2.72708
0.0257439 -1.32 -0.690635
1.9719 3.11178 -5.31351
2.5826 -1.30195 -5.02521
6.76577 1.66279 -2.80818
2.86271 -1.84305 -2.93845
7.06454 -2.72533 -6.58362
-1.3185 0.547518 -4.5386
1.89692 -1.29126 -2.07835
2.02471 8.38274 -2.34676
-1.15208 0.319365 -2.47856
-0.35405 -1.93989 -5.09224
-1.17204 1.48903 -2.76155
-0.291322 0.528093 -1.74976
-2.32696 -0.587278 -1.8458
-0.809006 1.38838 -2.87261
-1.05856 0.914703 5.57193
5.0253 1.65112 -3.53471
1.94903 2.73124 -2.77219
1.87958 -2.53154 -2.73966
3.64104 0.476482 -5.77685
-0.940799 -1.32331 1.90152
0.0973539 3.36858 3.35311
1.14632 0.711482 2.81718
2.38955 3.79236 2.94142
1.96826 -0.533184 1.6098
2.30363 0.6285 2.78745
-1.07242 -1.07006 -2.72652
0.6073 -4.42621 -2.97143
-1.59909 1.11258 1.56768
3.53039 2.41052 -2.27763
3.78469 -1.93135 4.32575
-0.387429 -1.01187 2.18225
-1.4641 -1.52797 -1.75885
-2.46559 0.320768 1.69799
0.235206 -1.04854 3.46452
-2.75948 1.88689 -2.08531
3.32398 -5.69302 -6.59553
0.157052 1.81538 -6.47522
1.88932 2.69885 -4.70507
-1.47309 3.05872 -3.16404
-0.587822 0.144387 -3.76373
0.322971 1.58778 -3.18953
2.46976 0.962058 -5.86287
-4.23617 -1.73647 -6.06249
0.282182 -3.96793 -7.78298
0.34548 3.1306 -6.45587
0.0025991 -0.00764368 0.75603
1.50348 1.90561 -4.29181
-1.502 -3.70998 2.34235
3.81964 -1.45501 -1.45276
1.01684 1.52441 -5.21671
-0.761566 1.71413 3.27279
-0.558648 -1.19974 4.96928
3.71853 0.550084 9.09184
1.04099 0.399602 1.82451
0.886827 0.360933 4.3243
-0.972165 1.69675 4.86836
-3.71963 -1.21033 4.15214
0.251647 -0.855417 3.55507
-5.72214 -0.739879 6.01629
-0.696152 -3.37202 2.08746
1.98371 -2.90862 2.07695
2.06657 -1.30267 3.12395
0.491887 0.891651 3.77698
0.229917 0.26133 3.05633
-1.53644 -1.11204 3.53604
1.7777 3.99832 4.4017
6.85139 -0.489203 -8.31009
-0.628511 -0.364369 -6.21928
-0.937058 -2.59276 -4.44312
1.46481 -1.14272 3.33417
0.760303 -0.835266 3.18898
-0.0773569 -0.4677 6.24885
0.556248 2.12305 3.77374
1.27659 0.0404195 2.57782
0.0986586 -1.50591 2.36245
-1.31126 -0.86783 4.97072
-3.78255 -3.47141 7.09888
0.82735 -3.10885 1.8336
-1.15797 -4.03248 -5.24642
-2.06977 2.0136 -0.764759
3.6546 -0.267253 -1.93603
1.33375 -0.833641 -5.42126
-0.968376 -4.78089 -4.60672
-1.84413 -1.89467 2.44456
-0.942811 -1.76967 -0.849654
-0.0184787 2.02574 -4.20268
-0.356838 -0.746215 -4.21516
0.51912 -3.04882 -7.71704
-1.09244 0.961747 1.06112
1.23237 6.24885 1.96901
-0.856384 5.1418 3.61595
-2.05457 -0.112708 5.36177
3.18094 2.30868 4.03226
-0.0737075 -0.599373 -1.96111
1.07534 -2.13619 -3.28632
0.275721 -1.66725 -2.10708
-0.279933 2.67522 -3.32609
-1.45147 0.0306039 4.90778
3.80457 -1.18057 5.40201
0.123448 2.51746 2.84175
0.33234 -1.09695 -1.53392
0.120594 -1.11386 -5.50299
-4.19056 -4.90909 -7.42616
-1.61604 -0.818925 -8.77968
-2.23067 1.80294 0.919199
-1.94092 1.61072 6.06716
-4.25883 6.20172 6.20042
1.47027 0.5003 7.05604
0.0273293 -2.14282 5.26794
-0.115831 -3.36701 8.78916
2.02479 -0.197508 4.96658
-3.79977 1.90614 -1.89344
-1.13198 1.05752 2.59509
-1.3574 0.0194128 2.43715
-3.33766 -0.0473976 -1.4468
-0.469394 0.432899 2.30702
-0.764513 0.142574 3.13206
-0.73949 4.85453 3.95203
1.52273 1.77182 -2.51067
-2.21356 -2.1414 -3.12621
-1.83375 -0.0193304 -2.68487
-2.78885 -0.150593 -2.16912
-0.274607 -3.13114 3.52617
-2.405 -1.75605 9.56822
-0.283734 0.484574 1.47441
0.285992 -2.76418 -0.467644
4.98223 -0.166307 6.3521
4.29954 -3.11136 6.18407
-0.932139 3.16103 -1.02339
-1.42561 2.08203 3.88769
-1.15216 3.60925 3.87079
-0.344787 0.150423 2.05321
-1.94957 0.274454 4.27996
0.198874 -4.32057 6.16749
-1.00904 -0.451171 3.83513
-0.0390814 1.00689 1.2334
0.434698 -1.75138 7.09125
-1.02012 -1.0565 3.61784
5.82931 1.67295 4.81699
1.82464 1.8735 -0.467482
3.6137 -1.30373 4.99135
-2.06493 -0.704265 2.61439
-1.80602 0.0632372 4.06978
-0.998724 0.116823 2.57507
-1.51132 0.73689 2.4353
-2.67566 0.183747 -3.59874
-0.0930053 0.259423 -1.86817
2.72627 -0.304497 3.51483
-1.75645 -2.89785 -5.92213
-1.62218 0.607971 -2.93112
-1.169 -0.0767719 1.71149
-1.372 -1.02523 2.75478
-1.15593 -1.1563 4.42202
2.16184 -0.996334 5.50896
-1.46401 -0.219447 -3.29504
0.470687 2.2452 -5.69487
-1.96946 4.11744 -5.40933
1.32693 0.382115 -3.68818
2.87656 -1.88113 -5.00425
2.61864 2.87389 -3.49559
2.76398 -1.34152 -3.08554
0.174949 -0.646509 -0.865839
-0.501166 -6.52083 -3.05237
-1.41623 0.503132 3.91622
-0.643666 -0.558937 3.89955
-0.939234 1.55413 3.53534
1.82699 2.55877 2.88195
2.49737 -1.24389 -5.66509
-3.53343 2.56316 -5.13035
0.546972 1.26847 -1.46825
-0.897626 -2.07853 -1.77831
-1.14357 2.83409 -3.07941
2.59011 5.33103 -10.664
4.81629 1.21902 -5.33035
2.80198 7.58842 -2.74498
1.08722 2.96406 1.58312
0.115825 0.69364 2.67854
1.38583 1.57079 5.42821
-0.422813 0.460426 -2.22185
-2.41176 1.4863 -1.92135
-1.26387 -1.02325 -2.79863
0.0460913 -2.47733 -0.84915
-1.70798 -1.41051 -2.26771
-0.542185 0.80344 -2.07667
-4.36666 0.996814 -5.33453
-0.769401 -1.12938 4.32273
-0.828169 0.168809 3.63369
0.0254944 -1.79722 5.87159
1.54377 -0.134533 7.31991
0.696716 -1.28236 1.53226
1.19802 -0.561801 -2.08751
-0.401641 -2.46461 -2.10837
-1.53582 1.22461 -3.93924
0.48012 1.2813 -1.85786
0.292017 -0.308906 -5.48814
1.18325 -0.472234 -3.92292
0.942413 -4.13646 3.74371
-1.8898 -0.949138 2.566
0.390746 0.253504 1.70569
0.91695 0.738182 -2.55869
2.24941 2.05555 -2.91807
0.490641 0.488816 -3.49946
-0.717685 -0.912667 1.22837
-3.45801 -1.50197 -5.1725
0.81597 1.435 3.7558
3.69717 2.76347 3.89876
-2.30566 2.92711 4.40163
1.17714 -1.8627 6.37914
-2.46761 -0.356779 4.63648
0.841945 -0.465705 2.35111
-2.49509 1.44042 4.80107
-1.15858 -0.734304 1.01794
2.06806 -2.35336 -2.36392
1.76966 -3.28473 -3.51014
1.96145 -0.492733 0.368963
-0.983823 0.35206 3.39857
1.22114 -2.30989 3.08579
1.79849 -0.856263 6.36161
-2.27675 -1.41921 -5.55052
0.767474 0.0029699 -6.28536
2.47837 0.691691 -6.6258
-0.0494788 -8.19794 3.74055
1.29797 -3.83035 -6.93647
1.89498 -1.34019 -2.76951
0.801889 1.99133 -2.57749
2.37511 0.912752 -3.45876
-0.747685 0.0868727 6.24353
2.82868 -0.517158 2.77031
0.720888 3.62389 -4.4405
2.2675 -2.19588 -8.42512
-0.452688 -0.730203 -2.75228
0.048817 0.766228 5.10947
4.39857 -0.587067 4.02326
0.0078016 3.75308 6.09813
1.24402 -2.95786 -3.49317
-2.69726 0.993433 1.67378
0.383403 -0.688892 -3.34352
-3.36648 -4.07759 -6.25632
-1.37793 1.03343 -8.15055
-3.39796 6.30135 -2.35772
1.40468 3.23254 -0.520469
0.092697 -3.3485 4.07587
0.672962 1.82202 5.604
7.30282 2.52574 11.2485
-0.0648163 -0.100532 4.6088
0.497715 0.746264 3.49741
-1.13709 -3.06202 5.4259
0.330523 -1.53072 -0.613129
-0.303333 0.545971 -3.92618
-2.91392 -1.4395 -1.93588
3.42358 0.635653 5.4442
2.50006 0.355688 4.9051
4.46502 -0.596684 5.79721
-0.852099 -0.325502 4.7529
5.19608 -0.15724 4.01675
-0.804791 -0.305546 3.29947
2.03505 -2.02094 0.918223
-0.55005 -1.35837 4.03092
2.07412 0.640654 1.64052
2.65952 3.27806 3.97231
0.115812 -3.22651 4.70942
3.1364 0.380855 3.68801
5.69587 1.9362 2.63904
-0.190828 2.19447 7.17695
0.389238 -0.56453 1.92821
0.470505 1.45347 -4.49631
-2.88668 -0.196182 -8.90304
-0.447528 -4.6363 -1.00518
3.56301 3.68616 -4.71413
-1.23884 -0.231733 10.3343
-0.109891 -0.399989 3.38505
-0.486541 2.32345 2.34987
-2.81974 -1.00367 -2.96355
0.188077 -3.13404 -3.08694
4.22205 1.96689 -4.65224
2.47625 -4.35702 -3.51401
1.34986 2.47874 -1.77835
1.25275 0.569897 -2.90875
2.56517 0.389899 -5.74648
1.46114 1.7175 -3.28241
-0.63278 -1.54076 -4.71846
-1.88072 -0.340577 2.57841
-0.876588 -1.41217 8.7409
1.36155 -0.78277 4.00222
2.75823 -2.24807 -8.95359
-4.62048 1.57331 -6.34919
-0.945372 1.28919 -4.15144
4.09375 -1.95886 1.39798
3.529 -1.07057 2.95701
-2.93947 1.74225 -2.6211
1.22442 -0.690503 -5.30867
-3.34037 -0.0682475 -2.6243
-0.619106 5.31911 -4.71971
-2.53021 -1.44676 -2.74976
3.76887 0.181107 -2.05136
1.03055 0.169324 -6.49878
-1.07752 2.43699 2.4632
-1.45574 0.0625803 -1.37902
-1.29169 -1.89767 2.96051
2.72332 4.69771 6.90468
0.34573 -1.74067 5.16813
3.13549 -1.40366 4.36479
0.945227 -1.43261 2.58892
0.751375 0.298622 4.83988
0.839062 1.21265 -1.29696
5.38502 -0.689806 -4.79003
0.148722 4.13882 -1.75185
0.856633 -2.48439 -2.48792
0.838886 -0.0194722 -2.0594
5.04703 1.76948 2.42354
-1.78657 -4.80739 -0.801549
0.335837 -0.642516 -2.38232
1.48793 -2.88194 -7.49135
0.541098 0.0665295 3.47629
-0.572173 -3.10187 6.67675
-0.580329 -4.50524 5.79012
-0.886715 1.29647 -2.19984
-0.998588 2.81162 -2.32038
0.543675 1.11 -2.39091
-0.19737 -0.981098 3.95711
2.6223 -0.997862 2.09182
1.58351 -0.965807 2.94653
4.18679 0.345945 6.18928
5.97672 4.39058 4.24268
1.8322 2.38208 7.97125
-2.10064 -2.75968 -2.79434
-0.312736 -1.07247 -0.894866
-0.377244 5.60479 3.63623
4.80744 0.760809 3.59971
1.75835 3.53945 2.4103
0.991411 4.22773 1.83379
-0.677027 -0.287797 2.75906
-2.11319 -0.134309 -1.29536
0.312245 -2.47405 2.75215
3.85941 -2.55614 2.22049
2.98146 -1.82001 -3.18611
4.2683 2.26171 -5.63754
-2.46597 2.80083 -1.19382
-4.40404 -2.03021 3.6124
0.877057 -0.468529 3.10049
-0.740782 1.01185 -1.68591
-4.32987 -0.279768 -1.55073
-1.43995 1.1219 -3.60136
4.5492 -1.38877 -4.03779
0.0856737 0.0672273 -2.86087
1.23144 0.0362225 -4.54369
1.71251 0.187146 -3.80773
-3.90538 -0.803013 -2.96347
-1.6653 -0.979795 -0.947166
-0.71388 -1.25895 2.97125
3.69119 0.213826 4.76799
-3.45585 -3.08956 2.84551
1.10991 -0.854487 2.17005
-3.23021 -4.6647 8.12909
-7.3497 -1.15802 2.90809
2.11224 -2.03099 3.6145
-2.59455 2.35005 3.16255
1.87656 -0.58033 4.02852
1.34804 -0.675612 -1.81245
-0.608749 2.06783 5.19008
1.39621 2.17181 8.38215
7.23365 -3.00716 5.73763
-1.21811 1.29442 3.13117
2.00377 -0.381455 4.67668
-1.53419 -1.83274 1.65302
4.88572 -1.05313 -3.70795
-2.96965 -3.15176 -5.2921
-3.01889 3.75432 -6.9022
-3.73884 1.39207 -3.95323
-2.16427 0.904019 3.63751
1.06516 -1.06148 -3.83641
1.67786 0.0801398 -4.15441
-0.111584 0.926762 1.78717
-3.48497 1.34462 -4.5486
5.01293 0.799185 6.44756
-0.665666 3.63253 1.92444
0.958668 4.00575 -1.22841
-2.0916 2.63799 2.56561
-3.62846 -3.44516 5.45401
2.98599 0.503018 3.24614
-3.61326 -2.7947 4.84811
6.11397 -0.0862329 4.34256
1.47767 -0.186007 2.5988
4.19153 -0.147745 5.15965
-0.721765 0.428411 2.81283
-7.06584 -0.462779 3.16599
0.722055 0.75463 4.0791
7.48159 -3.91716 7.33059
-3.14181 -0.392192 5.7948
-0.707806 -2.67188 3.05332
-0.461139 0.273804 -0.92684
-2.93434 0.193607 -5.02522
-0.11499 1.05213 -5.18381
-1.38478 1.32575 3.7742
-0.661366 2.77769 -1.29783
-0.259291 -1.27972 2.77871
-0.804081 0.325856 2.96888
0.60396 1.25496 2.44936
0.620413 -0.242749 -5.19572
-2.37738 -1.04337 2.62191
-0.864166 0.361696 3.84871
-1.46112 -0.681987 2.35186
0.367859 -3.07936 -2.99061
-0.599585 -0.714372 -3.10665
-0.468745 -0.355303 -4.14168
0.552143 -0.767597 -5.97323
0.18502 1.98453 -2.92376
-0.503591 -1.97852 -0.986711
2.13007 1.21661 -1.7107
-0.678768 -0.962387 -1.43487
0.31551 2.03911 -4.43583
-1.39334 -2.2501 -5.47399
-0.00982627 0.359772 1.30718
0.587857 -1.35593 4.61328
0.658416 1.87041 -3.0363
0.243588 -1.40303 2.23492
-0.824687 -1.21839 1.73536
0.609552 1.3432 -3.68711
-2.32885 -1.20442 -6.72727
-2.52264 -4.70114 -6.04759
4.55628 -0.602606 -4.54203
5.88265 4.17641 -3.51085
0.178525 3.96535 5.20882
0.822827 -1.52699 7.03137
3.95974 4.647 6.61347
7.01027 -3.19087 6.97991
3.18614 -5.28726 10.2636
-1.38495 0.530771 5.18473
0.477812 1.07771 2.37517
-0.0499864 -2.28139 3.86735
1.49823 1.26334 -3.06182
-4.58198 1.5105 -5.81259
1.19573 0.470571 -6.84553
-0.368873 4.12831 3.77482
0.0753578 -1.51956 2.77702
-1.93119 -0.627397 3.17819
-3.27602 3.12595 5.506
1.57069 -1.93698 2.9676
2.68126 3.06215 4.32367
-0.764833 -2.75651 2.90128
-3.06419 4.37214 3.81452
1.8007 -1.57267 3.2711
2.12238 5.87703 -3.83394
0.466709 -0.466529 -2.04582
0.547423 -5.5081 -3.731
-2.32476 -0.540431 -6.85604
-2.55392 0.152252 -5.07016
0.957644 -1.25996 1.42012
-6.10578 -6.35175 6.26384
2.40111 -1.99999 5.05195
0.327639 0.331828 1.52224
-2.25148 4.77893 6.30471
0.0037628 0.370719 3.04286
0.331776 -1.31032 2.75743
-2.47526 -1.88818 -4.03688
0.696359 0.0276482 -3.0643
0.343074 1.35601 -1.67917
0.434608 -3.46219 -3.59687
-0.940481 2.99213 -3.32678
1.46394 -0.799725 4.20493
-0.959725 0.0826785 0.826368
0.165648 1.73713 2.43447
-1.96701 1.65448 2.72907
-1.08558 -0.205789 5.38985
-1.58357 -0.0404562 -2.69188
3.278 3.05029 6.04255
-1.31369 -3.36806 3.13896
1.15118 1.16793 -3.4501
2.60417 1.46788 -2.9066
6.15164 -3.46024 -3.37851
-4.42635 0.412509 -6.15671
2.67018 -4.52581 -8.14917
-5.47446 -1.84691 -6.44203
0.758396 3.17759 -3.90418
-2.3259 1.91296 -3.40378
-0.0795222 1.68972 -7.00326
-2.35888 -0.696146 2.81802
-0.253204 0.273164 2.23469
-0.632406 -0.0534608 1.3694
2.83351 -0.259951 1.20934
-0.151609 -0.323631 1.65515
-1.53908 2.15527 2.66925
-3.58716 -3.52622 7.21066
1.20157 0.882803 2.0332
-2.53112 1.07987 -2.9585
-2.26993 0.115315 -1.93067
3.27192 4.82386 2.01321
0.965763 6.62283 10.764
-1.00771 -0.999968 9.72462
-0.47312 0.140018 1.83061
-1.2512 1.79168 2.74826
0.0677918 -1.04569 7.97722
-4.17067 2.64349 2.53306
1.09296 -0.498066 0.929767
-1.83179 3.11231 2.71973
-6.14993 -4.60635 3.5349
-1.27953 0.7573 2.95045
-1.46776 -1.10535 -2.72529
0.0416235 1.65394 -3.21509
0.751305 0.964576 -2.83368
-1.51992 -0.883271 -3.55932
2.00704 0.028796 -2.97677
-0.292931 -2.96859 -1.44818
0.290659 -1.8313 1.40269
-5.98576 -2.49303 5.16994
-7.16822 -3.09787 3.14309
3.08194 -1.23361 1.31576
-0.445505 -2.87721 1.61404
2.38744 -0.482851 1.7064
0.0681052 1.98675 3.60091
1.02941 -1.09356 6.61418
1.23931 -0.361296 3.48692
-1.1598 -3.18424 3.37231
-0.97444 1.80222 2.73093
-0.285093 -1.84324 2.98147
1.34592 0.459187 2.42592
0.817436 -0.567288 3.04069
1.49298 0.675755 -3.70415
-0.780081 -1.77201 -2.9361
-3.89024 0.231982 -5.07083
4.01061 0.504802 -2.62804
-0.624266 -2.32601 1.54655
-0.322431 0.0597918 -3.81738
-3.57875 -0.688822 -4.59364
-0.276964 -0.690248 3.30672
-0.00151065 -1.14735 0.967931
-0.315044 1.68765 3.51147
-0.040884 -0.168209 6.35477
-1.63538 -2.70123 5.22307
0.0439129 -0.227533 1.55871
-3.02039 0.1619 -1.91944
-2.36006 -2.48967 2.12112
-1.69441 -0.575329 1.40671
-0.00500257 1.13582 3.50496
-1.81145 2.58393 -5.64903
-0.278325 -4.05052 -7.78082
-6.11775 -7.11761 -12.3073
-3.71169 -0.268633 -4.04543
-1.53927 -1.49397 -4.56057
1.0461 -0.0561138 -1.5372
-0.928966 -4.14025 -5.08048
1.04273 -2.2515 -5.69359
0.195149 -3.47668 -4.20468
0.468884 0.794727 -3.64274
3.21608 -0.79024 -3.27322
2.00853 0.853578 7.48776
-3.46496 2.62254 8.56855
-0.842521 -1.08197 -2.3715
-2.67342 -1.81618 8.5362
-0.430057 3.60736 4.61687
-1.33587 -1.75665 -1.2302
0.585827 2.39849 -4.03375
-1.99482 -2.71511 2.19701
0.127062 -2.22081 4.87134
-0.751918 -0.332313 3.50168
0.0197034 -2.61968 5.75109
-3.81145 -4.84435 6.66943
-5.58905 -1.17098 8.2068
-3.78453 -3.53461 -4.93433
-0.023385 2.65856 1.26309
-0.0158344 2.13793 -2.85567
-0.787073 -0.756362 3.2155
3.05153 -0.0812396 4.97268
0.517994 -2.16785 5.27575
1.24481 -0.132442 0.935132
1.48507 2.89086 -5.18149
1.598 0.903464 -6.21062
-0.874685 -2.0744 -2.53847
-2.19428 1.72296 -2.95931
3.0916 1.35181 -3.97415
1.12509 1.13704 2.1942
1.57601 -0.502615 5.37904
1.45936 2.34753 3.73697
-3.72255 -3.32025 1.84912
-2.19258 2.16236 6.87738
4.48857 0.574584 -5.31408
1.55689 2.73775 -3.3182
-1.41889 1.35956 -1.1232
0.360932 -2.85024 -2.32028
1.43662 2.19499 5.53431
1.65585 1.1852 4.60728
-1.56088 0.352014 3.31551
1.38004 3.05902 -3.80246
-2.90413 -1.23028 -2.41012
0.628868 -0.945887 -1.01818
-1.76031 -2.30255 5.16539
0.0788521 0.922513 3.42849
-1.26531 2.73404 3.65812
-0.16786 1.79342 -3.82912
-1.97537 -0.672316 3.0199
-3.22294 1.0347 4.55176
2.17893 1.66389 3.30406
-4.47945 -1.65306 6.54168
-2.41062 0.936097 -1.13288
0.318802 -0.688335 -6.04109
-2.98159 -0.745593 2.74837
-3.23713 2.41207 -2.36119
-0.878517 0.575492 -1.79134
0.802168 2.23624 -3.47396
0.824007 3.25778 -3.56511
3.58848 3.68439 5.97056
4.03421 1.90856 6.76269
0.276453 -0.0257162 3.17923
-0.315918 3.26144 3.11096
2.90263 1.35769 4.81657
3.493 -4.31753 -6.08123
-1.2822 -2.55268 2.46789
3.78099 -3.96315 4.93764
3.82566 -1.51251 -6.06519
0.325452 -0.114333 -4.33984
5.71664 0.592325 -6.20113
-0.711291 -0.84188 4.13746
-1.08487 -0.456504 -1.6326
-0.408917 0.000806064 -2.86751
3.76825 -2.1583 -2.69988
-2.18444 -6.10724 -9.19336
-5.98393 -1.2004 -3.96317
2.86057 -0.476461 -4.54644
-1.35027 5.44381 -2.70809
-1.97412 1.26659 -3.01263
0.423286 -1.57271 0.237755
-0.112075 -2.36125 -3.10719
-0.577481 -2.43197 -3.9147
0.902763 -3.67964 -4.53633
-1.4732 2.89111 -2.71265
1.27728 1.88074 -2.31705
2.94681 -1.51398 -5.03386
1.67608 0.207455 -2.33685
2.24369 1.56049 -1.37178
2.14898 1.42528 1.34639
-0.0452173 -0.105433 1.95447
1.04275 3.01963 -1.29429
-2.15052 0.463047 -2.3091
-0.0422829 -0.104233 -3.58932
-1.16883 0.842547 -2.10845
-0.779842 -7.0878 -6.18341
0.676739 0.193965 2.70827
-0.645757 -0.0674679 -2.59866
-4.16478 -0.653535 3.11243
-2.09607 0.800204 -3.95121
0.0858894 0.882343 -2.91695
0.0995682 0.259145 1.64236
0.0700223 1.08671 -4.64527
1.33891 -3.04407 1.27679
-2.31032 0.579847 -5.48892
-0.363674 -1.34692 0.767137
3.26024 1.17394 0.977952
0.606488 -1.94568 -1.89469
-3.66294 2.05917 -1.53418
3.6543 -3.60051 -4.64391
-3.87831 0.520129 -4.91557
-0.971019 -0.98991 -3.19545
-3.01605 -4.34911 -4.0897
-8.4171 -4.11321 -6.90376
-4.04743 0.161926 -6.89098
2.14781 -4.0677 -2.09803
-5.37613 1.63301 -1.90859
1.87082 -1.61654 -6.73736
-0.150483 -1.12705 -5.68665
-0.616817 1.9415 -4.17719
-2.81281 -4.20132 -4.94178
0.0269166 -0.73237 -6.81542
-1.28423 0.68913 2.46944
-1.50587 0.389674 1.77384
-2.50203 3.23555 8.00164
1.79621 3.39573 -2.20763
-1.32886 0.34821 -5.86284
0.353753 -0.125961 -1.56155
1.67681 -2.13499 -3.86113
-1.4055 -2.20942 -5.27084
-0.277465 -1.18418 -5.60249
0.672987 -0.817807 -3.47783
1.97962 0.348994 -6.17684
-0.595048 2.2182 -4.21569
0.412015 -0.87264 6.07736
-1.18218 2.2789 6.15713
-1.13144 -1.23392 1.86143
11.6137 -2.76339 6.50426
-6.74568 -2.08937 5.02371
-0.170088 -0.94326 3.4091
0.379735 1.16263 7.1783
0.846974 -1.13069 -2.5538
-2.57811 0.250965 1.71092
-3.1885 2.30864 2.17359
5.22012 2.62246 -4.76975
-1.50877 2.23724 1.90441
-0.759384 -0.515245 4.14214
-0.606981 -0.787657 3.2656
-4.44706 2.0588 3.72649
3.41898 2.69223 5.53421
-0.431714 -0.801681 3.06383
-0.112545 -0.67254 3.19578
0.747907 1.28204 4.55371
3.05918 2.20547 4.3051
9.34316 6.12726 -5.20831
-1.02373 5.1685 -0.782085
5.48685 -0.920146 -2.94777
-0.444792 0.503474 -2.15962
-0.265018 2.38377 -3.12485
1.40862 2.21512 -7.92975
-1.73163 -1.29203 -4.00501
-2.20772 2.02891 -2.84639
1.63528 3.44671 -1.6884
3.38127 3.70237 9.04067
0.538053 -0.3462 2.62776
1.74804 0.537516 3.8373
-0.0313719 -3.36417 8.35201
-1.97092 0.360419 1.3304
-1.82831 -0.335414 1.64366
3.89749 2.16026 -6.68869
-1.76669 4.01421 -3.96823
-1.5827 -1.16728 -4.03851
1.25399 2.67006 1.69826
-0.889255 -2.33261 -3.41498
-1.80705 -3.74622 -5.1694
-1.62922 2.25238 -2.3411
-2.03288 -2.64697 2.45852
-1.12453 0.695815 2.76532
3.69696 -2.17799 4.66448
0.729457 -3.10579 4.41886
-2.22396 -2.62548 1.2332
4.22906 1.66646 5.28224
0.90676 -3.17888 5.02897
-3.95701 1.21339 -4.02846
-3.00648 -3.15845 -7.27976
4.68959 0.230255 -5.56267
5.68693 -1.43456 -9.29973
-0.942664 -0.51203 -6.19987
-1.30526 -1.82523 -3.52298
-0.858812 -0.110473 5.86301
3.6508 4.46269 9.18031
3.28831 4.14418 0.789315
-2.36867 0.544332 3.24819
2.50134 -0.810933 4.80405
-1.32379 -0.822153 5.2355
-2.27574 -0.92109 -1.73393
-0.266827 3.21179 -6.69449
-2.64552 1.55941 -3.01428
-1.61623 -0.394349 1.68004
1.34334 -3.10809 4.76097
1.60045 -0.510794 1.22561
-1.12378 1.80091 2.61705
6.74323 -0.18207 2.39192
1.09942 0.801952 -2.70451
-1.6625 -0.534379 -6.59075
-1.18298 -2.55059 -2.77152
-2.44017 4.56279 -2.88412
1.43846 2.12307 -0.771804
-1.71837 1.05185 1.63001
-2.54764 0.45668 -5.48747
-1.90589 1.62985 1.46171
-4.53173 1.69637 -5.89392
0.133358 2.83312 -3.91072
-0.185989 0.0144717 -1.51079
0.263352 -1.19394 -0.697665
-0.965927 -0.512354 1.94728
0.487894 -0.534413 3.24498
1.02237 0.330911 3.90242
-0.102172 -1.63471 -2.91147
-2.23762 -0.623135 -6.26521
-0.598648 1.63749 -4.06162
1.09716 0.5089 1.10345
4.3305 1.90278 -1.76384
3.55292 -4.68787 3.30322
2.92588 -3.35651 1.86766
0.0198539 1.71148 -3.16215
0.726953 2.35705 -3.322
0.255642 -1.82502 -7.79209
-3.75484 -2.52914 -6.68871
-4.53955 5.09023 -1.8281
-2.00923 0.691511 -4.46892
-5.66917 -1.31627 -6.91575
0.332699 2.32937 2.68848
1.37003 1.69569 3.03308
0.273823 -4.0797 2.86011
0.312843 -4.70812 4.69067
-0.0943434 -2.6401 6.93768
-2.12303 2.31971 -1.58153
-0.31877 0.0504065 -2.81565
-0.303471 -0.688544 -6.54994
1.88401 -1.00485 -1.05882
-1.80406 1.81795 -2.59761
-3.82568 -5.86111 -3.65193
-2.45861 -0.245887 -3.25995
2.4417 -2.28745 -4.21414
0.132783 -1.36354 -0.694187
1.03631 -3.90541 -3.74639
-2.14637 -1.45382 -3.63497
0.411474 -1.67935 -6.04436
-0.159123 6.78716 -5.34263
0.0599958 -1.78675 3.65442
-2.36231 0.703181 2.15938
-1.24131 -1.27357 2.46627
-2.82848 1.28981 -3.52796
0.334348 -1.30977 3.58093
0.0398071 3.10417 -6.02226
-5.05519 -0.643691 -8.01207
1.97862 -1.38694 -4.69224
-4.32551 1.31555 3.03994
-2.52404 -0.871044 2.61871
1.13982 -0.148824 2.89242
0.208553 1.34274 -1.56632
2.58797 1.11904 -3.08802
1.17646 -0.559233 -5.16772
2.45305 2.28091 6.471
1.85297 -0.0957099 3.22501
-4.32474 -1.72809 6.21246
2.3217 -1.34449 2.45892
-1.5397 -5.44495 -12.0046
1.28928 2.99289 -3.5793
1.59186 -2.85499 3.75483
-1.27819 2.10268 -0.801863
-4.79177 1.53171 1.7928
-0.669667 1.93792 2.42111
2.11641 1.05182 -0.447829
-1.51636 2.54039 -5.47426
-0.00416821 1.0949 -0.581573
-2.20469 8.00999 -4.15776
-1.37181 0.349845 -8.62653
1.09354 4.73299 -3.64535
1.1377 3.17717 -2.96613
2.60574 3.28439 -7.20557
0.25549 0.472377 -2.8342
-4.1932 1.18499 3.16103
6.12989 2.76156 7.30163
3.93604 5.83954 5.75349
7.72171 3.15435 6.1917
3.87143 1.27718 3.80127
-0.416185 -2.15429 3.07927
3.09321 0.671862 -3.77922
2.60431 -0.251062 -1.75959
0.569435 1.64828 -1.20556
0.130443 0.320317 -4.5372
-2.07978 4.13409 -5.67048
2.93097 1.11861 -5.94363
-1.0975 -2.26369 -4.21176
-2.48446 -0.0663312 5.82965
-1.58356 -2.97778 4.64658
-5.20921 -2.7505 -1.10249
-1.60767 -2.30971 2.91807
-0.184989 -2.89156 7.56337
1.15387 -5.27142 3.55498
2.9143 -1.90961 3.38033
-1.19461 -7.26478 -2.22687
0.386565 -0.420108 -5.30489
-3.11861 4.20552 2.35367
3.63089 -2.02128 -2.6439
1.58107 -1.34841 -1.01579
2.98648 0.973893 -2.79873
1.637 -0.180189 -3.78995
0.928666 2.39915 -5.34849
0.297292 2.27002 -3.28089
-2.49665 5.86556 -5.87375
-1.15565 1.9825 6.31694
0.618098 -0.861542 2.48086
2.41965 3.47786 3.36333
-5.34597 -1.25498 4.45543
-1.58656 -1.62545 1.90436
-0.372626 0.164097 2.70692
2.44187 -3.79139 -1.88628
-0.944274 2.33954 2.19491
-4.44357 0.11975 2.29681
-4.10857 1.65445 -4.46729
-2.72973 2.13046 -3.07182
1.35041 -4.045 4.57528
0.272923 -1.60608 5.68161
2.87844 1.25678 5.97948
-0.706517 1.14671 1.28401
0.173245 3.01853 3.29682
-2.81048 -1.12725 1.28693
0.662537 0.995842 7.47202
-1.00309 -1.57037 3.52878
-1.80418 -2.97225 2.15857
-1.24193 -0.803325 4.52631
2.21678 -0.536275 2.08534
3.17636 -1.54446 1.74262
-3.0282 -1.99549 5.87275
4.42612 1.42064 5.59768
-1.58298 4.24703 9.45565
0.968225 -0.336645 4.96365
0.355199 1.41617 -1.8804
-1.11573 0.0243894 -3.16437
-0.571279 -0.856261 2.50538
-0.383669 -2.45016 -1.83067
5.41655 7.53605 7.12713
2.37227 2.66615 4.98529
1.11487 -0.527703 4.85626
-2.79117 2.55099 4.00864
-1.59611 3.11182 2.4761
0.116683 -1.45086 -1.5598
0.30504 -0.66184 -1.39501
-1.90773 0.655669 -4.99523
3.14887 -0.0572674 -4.07189
0.815161 -3.60379 4.39902
-1.69479 3.95891 -2.79163
-2.63338 2.32756 -3.30103
2.14825 3.49509 5.85176
-1.23435 0.698394 3.86701
-3.27738 -0.352388 2.66157
-2.30123 2.40259 3.2277
4.02985 0.293398 5.18104
0.162274 -1.8871 3.39443
-1.9057 -0.436739 1.84143
1.09437 -0.581988 3.6894
